# .PCD v0.7 - Point Cloud Data file format
VERSION 0.7
FIELDS x y z
SIZE 4 4 4
TYPE F F F
COUNT 1 1 1
WIDTH 1420
HEIGHT 1
VIEWPOINT 0 0 0 1 0 0 0
POINTS 1420
DATA ascii
0.045000002 0.0018 0.026208341
0.046799999 0.0018 0.016926587
0.048599999 0.0018 0.011333227
0.0504 0.0018 0.0038963556
0.052200001 0.0018 0.0038996339
0.054000001 0.0018 0.0039028525
0.055799998 0.0018 0.0039060712
0.057599999 0.0018 0.0039092898
0.0594 0.0018 0.0048571825
0.0612 0.0018 0.0048092604
0.063000001 0.0018 0.0048636198
0.064800002 0.0018 0.0048668981
0.066600002 0.0018 0.0029808879
0.068400003 0.0018 0.0020395517
0.070200004 0.0018 0.0020427704
0.071999997 0.0018 0.0020460486
0.073799998 0.0018 0.0020492673
0.075599998 0.0018 0.0020524859
0.077399999 0.0018 0.0020557642
0.0792 0.0018 0.0030035973
0.081 0.0018 0.0030068159
0.082800001 0.0018 0.0039545894
0.084600002 0.0018 0.0039578676
0.086400002 0.0018 0.0039610863
0.088200003 0.0018 0.0049088597
0.090000004 0.0018 0.0039708018
-0.090000004 0.0035999999 0.0026397705
-0.088200003 0.0035999999 0.0026430488
-0.086400002 0.0035999999 0.0026462674
-0.084600002 0.0035999999 0.0017055869
-0.082800001 0.0035999999 0.0017088056
-0.081 0.0035999999 0.002655983
-0.0792 0.0035999999 0.0036031604
-0.077399999 0.0035999999 0.0045503974
-0.075599998 0.0035999999 0.004553616
-0.073799998 0.0035999999 0.0045568347
-0.071999997 0.0035999999 0.0045600533
-0.070200004 0.0035999999 0.0045633316
-0.068400003 0.0035999999 0.0045665503
-0.066600002 0.0035999999 0.0045697689
-0.064800002 0.0035999999 0.0036290884
-0.063000001 0.0035999999 0.0026884079
-0.0612 0.0035999999 0.0026916862
-0.0594 0.0035999999 0.003638804
-0.057599999 0.0035999999 0.0036420822
-0.055799998 0.0035999999 0.0036453009
-0.054000001 0.0035999999 0.0036485195
-0.052200001 0.0035999999 0.0036517978
-0.0504 0.0035999999 0.0036550164
-0.048599999 0.0035999999 0.0046021342
-0.046799999 0.0035999999 0.003664732
-0.045000002 0.0035999999 0.0027241111
-0.043200001 0.0035999999 -0.002892077
-0.0414 0.0035999999 -0.0047785044
-0.0396 0.0035999999 -0.0047752261
-0.037799999 0.0035999999 -0.0029260516
-0.035999998 0.0035999999 -0.0029260516
-0.034200002 0.0035999999 -0.0029260516
-0.032400001 0.0035999999 -0.0029260516
-0.0306 0.0035999999 0.030775249
-0.0288 0.0035999999 0.030775249
-0.027000001 0.0035999999 0.030775249
-0.0252 0.0035999999 0.030775249
-0.023399999 0.0035999999 0.032591164
-0.021600001 0.0035999999 0.032591164
-0.0198 0.0035999999 0.034339845
-0.017999999 0.0035999999 0.034339845
-0.0162 0.0035999999 0.035280168
-0.0144 0.0035999999 0.035283327
-0.0126 0.0035999999 0.035283327
-0.0108 0.0035999999 0.038966715
-0.0089999996 0.0035999999 0.039906085
-0.0071999999 0.0035999999 0.040845394
-0.0054000001 0.0035999999 0.040848494
-0.0035999999 0.0035999999 0.039915502
-0.0018 0.0035999999 0.038982391
0 0.0035999999 0.0380494
0.0018 0.0035999999 0.037116468
0.0035999999 0.0035999999 0.037119567
0.0054000001 0.0035999999 0.038058817
0.0071999999 0.0035999999 0.038061917
0.0089999996 0.0035999999 0.037128985
0.0108 0.0035999999 0.037132144
0.0126 0.0035999999 0.036202312
0.0144 0.0035999999 0.036273897
0.0162 0.0035999999 0.036277056
0.017999999 0.0035999999 0.036280155
0.0198 0.0035999999 0.037151039
0.021600001 0.0035999999 0.038090169
0.023399999 0.0035999999 0.038093328
0.0252 0.0035999999 0.038096488
0.027000001 0.0035999999 0.038099587
0.0288 0.0035999999 0.037166715
0.0306 0.0035999999 0.035365164
0.032400001 0.0035999999 0.033494174
0.034200002 0.0035999999 0.032563388
0.035999998 0.0035999999 0.032566607
0.037799999 0.0035999999 0.032569706
0.0396 0.0035999999 0.032572865
0.0414 0.0035999999 0.031704545
0.043200001 0.0035999999 0.030769765
0.045000002 0.0035999999 0.026144803
0.046799999 0.0035999999 0.02151221
0.048599999 0.0035999999 0.013162732
0.0504 0.0035999999 0.0038461685
0.052200001 0.0035999999 0.0047931075
0.054000001 0.0035999999 0.0038526654
0.055799998 0.0035999999 0.0038558841
0.057599999 0.0035999999 0.0038591027
0.0594 0.0035999999 0.0048060417
0.0612 0.0035999999 0.0048092604
0.063000001 0.0035999999 0.004812479
0.064800002 0.0035999999 0.0038720965
0.066600002 0.0035999999 0.0029316545
0.068400003 0.0035999999 0.0029348731
0.070200004 0.0035999999 0.0029381514
0.071999997 0.0035999999 0.00294137
0.073799998 0.0035999999 0.0029446483
0.075599998 0.0035999999 0.0029478669
0.077399999 0.0035999999 0.0038947463
0.0792 0.0035999999 0.0048416257
0.081 0.0035999999 0.0039012432
0.082800001 0.0035999999 0.0039044619
0.084600002 0.0035999999 0.0039076805
0.086400002 0.0035999999 0.0029673576
0.088200003 0.0035999999 0.0048577785
0.090000004 0.0035999999 0.0048610568
-0.090000004 0.0054000001 0.0016491413
-0.088200003 0.0054000001 0.0016524196
-0.086400002 0.0054000001 0.0016556382
-0.084600002 0.0054000001 0.00071591139
-0.082800001 0.0054000001 0.00071918964
-0.081 0.0054000001 0.0016654134
-0.0792 0.0054000001 0.0026116371
-0.077399999 0.0054000001 0.0035578609
-0.075599998 0.0054000001 0.0045040846
-0.073799998 0.0054000001 0.0045073628
-0.071999997 0.0054000001 0.0035675764
-0.070200004 0.0054000001 0.0035708547
-0.068400003 0.0054000001 0.0035740733
-0.066600002 0.0054000001 0.0035773516
-0.064800002 0.0054000001 0.0035805702
-0.063000001 0.0054000001 0.0026408434
-0.0612 0.0054000001 0.0017011762
-0.0594 0.0054000001 0.0026473403
-0.057599999 0.0054000001 0.0026506186
-0.055799998 0.0054000001 0.0026538372
-0.054000001 0.0054000001 0.0036000609
-0.052200001 0.0054000001 0.0036032796
-0.0504 0.0054000001 0.0036064982
-0.048599999 0.0054000001 0.0045526624
-0.046799999 0.0054000001 0.0036162734
-0.045000002 0.0054000001 0.0026765466
-0.043200001 0.0054000001 0.00079399347
-0.0414 0.0054000001 -0.0029326081
-0.0396 0.0054000001 -0.0029293299
-0.037799999 0.0054000001 -0.0029260516
-0.035999998 0.0054000001 -0.0029260516
-0.034200002 0.0054000001 -0.0029260516
-0.032400001 0.0054000001 -0.0029260516
-0.0306 0.0054000001 -0.0029260516
-0.0288 0.0054000001 0.030775249
-0.027000001 0.0054000001 0.030775249
-0.0252 0.0054000001 0.032591164
-0.023399999 0.0054000001 0.032591164
-0.021600001 0.0054000001 0.031464756
-0.0198 0.0054000001 0.031464756
-0.017999999 0.0054000001 0.031464756
-0.0162 0.0054000001 0.032404125
-0.0144 0.0054000001 0.033343375
-0.0126 0.0054000001 0.036155105
-0.0108 0.0054000001 0.036155105
-0.0089999996 0.0054000001 0.037968397
-0.0071999999 0.0054000001 0.037968397
-0.0054000001 0.0054000001 0.037036359
-0.0035999999 0.0054000001 0.037039518
-0.0018 0.0054000001 0.037042618
0 0.0054000001 0.037045777
0.0018 0.0054000001 0.037048936
0.0035999999 0.0054000001 0.037052095
0.0054000001 0.0054000001 0.037990391
0.0071999999 0.0054000001 0.03799355
0.0089999996 0.0054000001 0.037061512
0.0108 0.0054000001 0.036199152
0.0126 0.0054000001 0.036202312
0.0144 0.0054000001 0.036205471
0.0162 0.0054000001 0.03620863
0.017999999 0.0054000001 0.036211729
0.0198 0.0054000001 0.037083566
0.021600001 0.0054000001 0.038021863
0.023399999 0.0054000001 0.038024962
0.0252 0.0054000001 0.038028121
0.027000001 0.0054000001 0.037096143
0.0288 0.0054000001 0.036164105
0.0306 0.0054000001 0.035297632
0.032400001 0.0054000001 0.033428609
0.034200002 0.0054000001 0.033431768
0.035999998 0.0054000001 0.032502055
0.037799999 0.0054000001 0.032505214
0.0396 0.0054000001 0.032508373
0.0414 0.0054000001 0.031639099
0.043200001 0.0054000001 0.029768169
0.045000002 0.0054000001 0.026083112
0.046799999 0.0054000001 0.019575477
0.048599999 0.0054000001 0.01681602
0.0504 0.0054000001 0.0065734982
0.052200001 0.0054000001 0.0056382418
0.054000001 0.0054000001 0.0047470927
0.055799998 0.0054000001 0.0038076043
0.057599999 0.0054000001 0.003810823
0.0594 0.0054000001 0.0047567487
0.0612 0.0054000001 0.0047600269
0.063000001 0.0054000001 0.0047632456
0.064800002 0.0054000001 0.0038238168
0.066600002 0.0054000001 0.0038270354
0.068400003 0.0054000001 0.0038302541
0.070200004 0.0054000001 0.0038335323
0.071999997 0.0054000001 0.003836751
0.073799998 0.0054000001 0.0028973222
0.075599998 0.0054000001 0.0029006004
0.077399999 0.0054000001 0.0038464665
0.0792 0.0054000001 0.0047923923
0.081 0.0054000001 0.0038529634
0.082800001 0.0054000001 0.0038562417
0.084600002 0.0054000001 0.0038594604
0.086400002 0.0054000001 0.0029200315
0.088200003 0.0054000001 0.0048086047
0.090000004 0.0054000001 0.0048118234
-0.090000004 0.0071999999 0.00066232681
-0.088200003 0.0071999999 0.0016076565
-0.086400002 0.0071999999 0.0016108751
-0.084600002 0.0071999999 0.00067210197
-0.082800001 0.0071999999 0.00071918964
-0.081 0.0071999999 0.0016206503
-0.0792 0.0071999999 0.0035079718
-0.077399999 0.0071999999 0.0035111904
-0.075599998 0.0071999999 0.0044564605
-0.073799998 0.0071999999 0.0044597387
-0.071999997 0.0071999999 0.0025789142
-0.070200004 0.0071999999 0.0025821924
-0.068400003 0.0071999999 0.0025854707
-0.066600002 0.0071999999 0.0035306811
-0.064800002 0.0071999999 0.002591908
-0.063000001 0.0071999999 0.0025951862
-0.0612 0.0071999999 0.0025984645
-0.0594 0.0071999999 0.0026016831
-0.057599999 0.0071999999 0.0026049614
-0.055799998 0.0071999999 0.0026114583
-0.054000001 0.0071999999 0.0035566688
-0.052200001 0.0071999999 0.0035598874
-0.0504 0.0071999999 0.0035598874
-0.048599999 0.0071999999 0.0045083761
-0.046799999 0.0071999999 0.0045115948
-0.045000002 0.0071999999 0.004514873
-0.043200001 0.0071999999 0.0026341677
-0.0414 0.0071999999 -0.0020315051
-0.0396 0.0071999999 -0.0029711127
-0.037799999 0.0071999999 -0.0020249486
-0.035999998 0.0071999999 -0.0020249486
-0.034200002 0.0071999999 -0.0020249486
-0.032400001 0.0071999999 -0.0020249486
-0.0306 0.0071999999 -0.0020249486
-0.0288 0.0071999999 0.030775249
-0.027000001 0.0071999999 0.030775249
-0.0252 0.0071999999 0.032591164
-0.023399999 0.0071999999 0.031464756
-0.021600001 0.0071999999 0.031464756
-0.0198 0.0071999999 0.031464756
-0.017999999 0.0071999999 0.031464756
-0.0162 0.0071999999 0.032404125
-0.0144 0.0071999999 0.033343375
-0.0126 0.0071999999 0.033343375
-0.0108 0.0071999999 0.036155105
-0.0089999996 0.0071999999 0.03509903
-0.0071999999 0.0071999999 0.03509903
-0.0054000001 0.0071999999 0.037036359
-0.0035999999 0.0071999999 0.037039518
-0.0018 0.0071999999 0.037042618
0 0.0071999999 0.037045777
0.0018 0.0071999999 0.037048936
0.0035999999 0.0071999999 0.037052095
0.0054000001 0.0071999999 0.036992729
0.0071999999 0.0071999999 0.036992729
0.0089999996 0.0071999999 0.036064804
0.0108 0.0071999999 0.036132574
0.0126 0.0071999999 0.035200536
0.0144 0.0071999999 0.035203695
0.0162 0.0071999999 0.036142051
0.017999999 0.0071999999 0.036145151
0.0198 0.0071999999 0.037017941
0.021600001 0.0071999999 0.037021101
0.023399999 0.0071999999 0.0370242
0.0252 0.0071999999 0.036093175
0.027000001 0.0071999999 0.037096143
0.0288 0.0071999999 0.036164105
0.0306 0.0071999999 0.035232127
0.032400001 0.0071999999 0.03336817
0.034200002 0.0071999999 0.032436252
0.035999998 0.0071999999 0.032439411
0.037799999 0.0071999999 0.03244257
0.0396 0.0071999999 0.033380866
0.0414 0.0071999999 0.031575501
0.043200001 0.0071999999 0.030642509
0.045000002 0.0071999999 0.026023328
0.046799999 0.0071999999 0.019575477
0.048599999 0.0071999999 0.0074669719
0.0504 0.0071999999 0.0074669719
0.052200001 0.0071999999 0.0055918097
0.054000001 0.0071999999 0.004699707
0.055799998 0.0071999999 0.0037611723
0.057599999 0.0071999999 0.0037644506
0.0594 0.0071999999 0.0037676692
0.0612 0.0071999999 0.0047127008
0.063000001 0.0071999999 0.0047159195
0.064800002 0.0071999999 0.0037774444
0.066600002 0.0071999999 0.003780663
0.068400003 0.0071999999 0.0047256351
0.070200004 0.0071999999 0.0047289133
0.071999997 0.0071999999 0.004732132
0.073799998 0.0071999999 0.0037936568
0.075599998 0.0071999999 0.0037968755
0.077399999 0.0071999999 0.0038001537
0.0792 0.0071999999 0.0047451258
0.081 0.0071999999 0.0038066506
0.082800001 0.0071999999 0.0047516227
0.084600002 0.0071999999 0.0047548413
0.086400002 0.0071999999 0.0038163662
0.088200003 0.0071999999 0.0047613382
0.090000004 0.0071999999 0.0047645569
-0.090000004 0.0089999996 0.0025026202
-0.088200003 0.0089999996 0.0025058985
-0.086400002 0.0089999996 0.0025091171
-0.084600002 0.0089999996 0.0015712976
-0.082800001 0.0089999996 -0.00026661158
-0.081 0.0089999996 0.0015777946
-0.0792 0.0089999996 0.0034632087
-0.077399999 0.0089999996 0.0044075251
-0.075599998 0.0089999996 0.0044108033
-0.073799998 0.0089999996 0.004414022
-0.071999997 0.0089999996 0.0025351644
-0.070200004 0.0089999996 0.002538383
-0.068400003 0.0089999996 0.0025416613
-0.066600002 0.0089999996 0.0025449395
-0.064800002 0.0089999996 0.0034891963
-0.063000001 0.0089999996 0.0034924746
-0.0612 0.0089999996 0.0034957528
-0.0594 0.0089999996 0.002561152
-0.057599999 0.0089999996 0.0025644302
-0.055799998 0.0089999996 0.0025677085
-0.054000001 0.0089999996 0.0025709271
-0.052200001 0.0089999996 0.0035152435
-0.0504 0.0089999996 0.0044595003
-0.048599999 0.0089999996 0.004462719
-0.046799999 0.0089999996 0.0044659972
-0.045000002 0.0089999996 0.0044692159
-0.043200001 0.0089999996 0.003531456
-0.0414 0.0089999996 0.0016527176
-0.0396 0.0089999996 -0.0011271238
-0.037799999 0.0089999996 -0.00300771
-0.035999998 0.0089999996 -0.00300771
-0.034200002 0.0089999996 -0.00300771
-0.032400001 0.0089999996 -0.0012279153
-0.0306 0.0089999996 -0.0012279153
-0.0288 0.0089999996 -0.0012279153
-0.027000001 0.0089999996 -0.00032067299
-0.0252 0.0089999996 0.031464756
-0.023399999 0.0089999996 0.031464756
-0.021600001 0.0089999996 0.031464756
-0.0198 0.0089999996 0.031464756
-0.017999999 0.0089999996 0.031464756
-0.0162 0.0089999996 0.031464756
-0.0144 0.0089999996 0.032404125
-0.0126 0.0089999996 0.033343375
-0.0108 0.0089999996 0.03509903
-0.0089999996 0.0089999996 0.03509903
-0.0071999999 0.0089999996 0.03509903
-0.0054000001 0.0089999996 0.03509903
-0.0035999999 0.0089999996 0.034174323
-0.0018 0.0089999996 0.034174323
0 0.0089999996 0.034177482
0.0018 0.0089999996 0.036049068
0.0035999999 0.0089999996 0.036052167
0.0054000001 0.0089999996 0.036055326
0.0071999999 0.0089999996 0.03786236
0.0089999996 0.0089999996 0.036064804
0.0108 0.0089999996 0.035133779
0.0126 0.0089999996 0.035136878
0.0144 0.0089999996 0.034205914
0.0162 0.0089999996 0.035143197
0.017999999 0.0089999996 0.035146356
0.0198 0.0089999996 0.036954284
0.021600001 0.0089999996 0.036957443
0.023399999 0.0089999996 0.036960602
0.0252 0.0089999996 0.036093175
0.027000001 0.0089999996 0.035162151
0.0288 0.0089999996 0.034231186
0.0306 0.0089999996 0.033300161
0.032400001 0.0089999996 0.03330332
0.034200002 0.0089999996 0.032375455
0.035999998 0.0089999996 0.032378614
0.037799999 0.0089999996 0.032381773
0.0396 0.0089999996 0.032384932
0.0414 0.0089999996 0.032448888
0.043200001 0.0089999996 0.03151691
0.045000002 0.0089999996 0.026901543
0.046799999 0.0089999996 0.014884174
0.048599999 0.0089999996 0.0074205995
0.0504 0.0089999996 0.0064839721
0.052200001 0.0089999996 0.0055473447
0.054000001 0.0089999996 0.0046542883
0.055799998 0.0089999996 0.0037167072
0.057599999 0.0089999996 0.0037199855
0.0594 0.0089999996 0.0037232041
0.0612 0.0089999996 0.0037264824
0.063000001 0.0089999996 0.003729701
0.064800002 0.0089999996 0.0037329793
0.066600002 0.0089999996 0.0037361979
0.068400003 0.0089999996 0.0037394762
0.070200004 0.0089999996 0.0037426949
0.071999997 0.0089999996 0.0037459731
0.073799998 0.0089999996 0.0018676519
0.075599998 0.0089999996 0.0018709302
0.077399999 0.0089999996 0.0018742085
0.0792 0.0089999996 0.0028182268
0.081 0.0089999996 0.0028214455
0.082800001 0.0089999996 0.0037654638
0.084600002 0.0089999996 0.0047094822
0.086400002 0.0089999996 0.0037719607
0.088200003 0.0089999996 0.0047159791
0.090000004 0.0089999996 0.0047191978
-0.090000004 0.0108 0.0024607182
-0.088200003 0.0108 0.0024639964
-0.086400002 0.0108 0.0024672151
-0.084600002 0.0108 0.0015304089
-0.082800001 0.0108 0.0015336871
-0.081 0.0108 0.0015369654
-0.0792 0.0108 0.0034203529
-0.077399999 0.0108 0.0034236312
-0.075599998 0.0108 0.0043669939
-0.073799998 0.0108 0.0034301281
-0.071999997 0.0108 0.0024932623
-0.070200004 0.0108 0.0024965405
-0.068400003 0.0108 0.0024998188
-0.066600002 0.0108 0.0025030375
-0.064800002 0.0108 0.0034464002
-0.063000001 0.0108 0.0034496784
-0.0612 0.0108 0.0034561753
-0.0594 0.0108 0.0025193095
-0.057599999 0.0108 0.0025225878
-0.055799998 0.0108 0.002525866
-0.054000001 0.0108 0.0025290847
-0.052200001 0.0108 0.0034724474
-0.0504 0.0108 0.0044157505
-0.048599999 0.0108 0.0044190288
-0.046799999 0.0108 0.0044222474
-0.045000002 0.0108 0.0044255257
-0.043200001 0.0108 0.0034887195
-0.0414 0.0108 0.001611948
-0.0396 0.0108 0.00071501732
-0.037799999 0.0108 -0.0039867163
-0.035999998 0.0108 -0.0058653951
-0.034200002 0.0108 -0.0058653951
-0.032400001 0.0108 -0.0012279153
-0.0306 0.0108 -0.0012279153
-0.0288 0.0108 -0.0012279153
-0.027000001 0.0108 -0.00032067299
-0.0252 0.0108 -0.00032067299
-0.023399999 0.0108 0.031464756
-0.021600001 0.0108 0.031464756
-0.0198 0.0108 0.031464756
-0.017999999 0.0108 0.031464756
-0.0162 0.0108 0.031464756
-0.0144 0.0108 0.032404125
-0.0126 0.0108 0.033343375
-0.0108 0.0108 0.03509903
-0.0089999996 0.0108 0.03509903
-0.0071999999 0.0108 0.03509903
-0.0054000001 0.0108 0.03509903
-0.0035999999 0.0108 0.033180118
-0.0018 0.0108 0.033180118
0 0.0108 0.034116685
0.0018 0.0108 0.035053074
0.0035999999 0.0108 0.035989463
0.0054000001 0.0108 0.036925912
0.0071999999 0.0108 0.03693223
0.0089999996 0.0108 0.0360021
0.0108 0.0108 0.036005259
0.0126 0.0108 0.036008418
0.0144 0.0108 0.035078347
0.0162 0.0108 0.036014736
0.017999999 0.0108 0.036017895
0.0198 0.0108 0.036954284
0.021600001 0.0108 0.036957443
0.023399999 0.0108 0.036960602
0.0252 0.0108 0.036030531
0.027000001 0.0108 0.03510052
0.0288 0.0108 0.034170449
0.0306 0.0108 0.034173608
0.032400001 0.0108 0.033246636
0.034200002 0.0108 0.033249795
0.035999998 0.0108 0.032319784
0.037799999 0.0108 0.032322943
0.0396 0.0108 0.032326102
0.0414 0.0108 0.031453967
0.043200001 0.0108 0.029588878
0.045000002 0.0108 0.025909483
0.046799999 0.0108 0.025909483
0.048599999 0.0108 0.0073761344
0.0504 0.0108 0.0073761344
0.052200001 0.0108 0.0055473447
0.054000001 0.0108 0.0046107173
0.055799998 0.0108 0.0027343035
0.057599999 0.0108 0.0027375817
0.0594 0.0108 0.0036806464
0.0612 0.0108 0.0036839247
0.063000001 0.0108 0.0036871433
0.064800002 0.0108 0.0036904216
0.066600002 0.0108 0.0036936402
0.068400003 0.0108 0.0027570724
0.070200004 0.0108 0.0037001967
0.071999997 0.0108 0.002763629
0.073799998 0.0108 0.00088721514
0.075599998 0.0108 0.00089049339
0.077399999 0.0108 0.00089377165
0.0792 0.0108 0.0008969903
0.081 0.0108 0.00090026855
0.082800001 0.0108 0.0027831197
0.084600002 0.0108 0.0037261844
0.086400002 0.0108 0.0037294626
0.088200003 0.0108 0.0046724677
0.090000004 0.0108 0.004675746
-0.090000004 0.0126 0.0033599138
-0.088200003 0.0126 0.0033631921
-0.086400002 0.0126 0.0043056011
-0.084600002 0.0126 0.0070835352
-0.082800001 0.0126 0.004312098
-0.081 0.0126 0.0043153763
-0.0792 0.0126 0.0043185949
-0.077399999 0.0126 0.0043218732
-0.075599998 0.0126 0.0033859611
-0.073799998 0.0126 0.0033892393
-0.071999997 0.0126 0.0024533868
-0.070200004 0.0126 0.0024599433
-0.068400003 0.0126 0.0034022331
-0.066600002 0.0126 0.0034022331
-0.064800002 0.0126 0.0034055114
-0.063000001 0.0126 0.0043479204
-0.0612 0.0126 0.0043544173
-0.0594 0.0126 0.0034185052
-0.057599999 0.0126 0.0024827123
-0.055799998 0.0126 0.0024859905
-0.054000001 0.0126 0.0015500784
-0.052200001 0.0126 0.0024924874
-0.0504 0.0126 0.0034348369
-0.048599999 0.0126 0.0034380555
-0.046799999 0.0126 0.0034413338
-0.045000002 0.0126 0.003444612
-0.043200001 0.0126 0.0034478307
-0.0414 0.0126 0.0025120974
-0.0396 0.0126 0.002515316
-0.037799999 0.0126 -0.0058653951
-0.035999998 0.0126 -0.0058653951
-0.034200002 0.0126 -0.0012279153
-0.032400001 0.0126 -0.0012279153
-0.0306 0.0126 -0.0012279153
-0.0288 0.0126 -0.00032067299
-0.027000001 0.0126 -0.00032067299
-0.0252 0.0126 -0.00032067299
-0.023399999 0.0126 0.031464756
-0.021600001 0.0126 0.031464756
-0.0198 0.0126 0.031464756
-0.017999999 0.0126 0.031464756
-0.0162 0.0126 0.031464756
-0.0144 0.0126 0.032404125
-0.0126 0.0126 0.03509903
-0.0108 0.0126 0.03509903
-0.0089999996 0.0126 0.03509903
-0.0071999999 0.0126 0.03509903
-0.0054000001 0.0126 0.033180118
-0.0035999999 0.0126 0.033180118
-0.0018 0.0126 0.032193065
0 0.0126 0.0331285
0.0018 0.0126 0.033131659
0.0035999999 0.0126 0.034067154
0.0054000001 0.0126 0.035002708
0.0071999999 0.0126 0.034073532
0.0089999996 0.0126 0.034076691
0.0108 0.0126 0.03407985
0.0126 0.0126 0.033150733
0.0144 0.0126 0.033153892
0.0162 0.0126 0.033157051
0.017999999 0.0126 0.034092486
0.0198 0.0126 0.03502804
0.021600001 0.0126 0.035031199
0.023399999 0.0126 0.035034359
0.0252 0.0126 0.033172905
0.027000001 0.0126 0.032243848
0.0288 0.0126 0.031317949
0.0306 0.0126 0.031321108
0.032400001 0.0126 0.031324267
0.034200002 0.0126 0.031327426
0.035999998 0.0126 0.032319784
0.037799999 0.0126 0.032322943
0.0396 0.0126 0.032326102
0.0414 0.0126 0.030462921
0.043200001 0.0126 0.029532909
0.045000002 0.0126 0.025855482
0.046799999 0.0126 0.025855482
0.048599999 0.0126 0.0054575801
0.0504 0.0126 0.0055015087
0.052200001 0.0126 0.0045658946
0.054000001 0.0126 0.0036302209
0.055799998 0.0126 0.0026946664
0.057599999 0.0126 0.0017589927
0.0594 0.0126 0.0017622113
0.0612 0.0126 0.0027044415
0.063000001 0.0126 0.0027077198
0.064800002 0.0126 0.0017719865
0.066600002 0.0126 0.0017752647
0.068400003 0.0126 0.001778543
0.070200004 0.0126 0.0017818213
0.071999997 0.0126 0.00084620714
0.073799998 0.0126 0.00088721514
0.075599998 0.0126 0.00089049339
0.077399999 0.0126 0.00089377165
0.0792 0.0126 0.0008969903
0.081 0.0126 0.00090026855
0.082800001 0.0126 0.0027435422
0.084600002 0.0126 0.0046244264
0.086400002 0.0126 0.0064638257
0.088200003 0.0126 0.0064670444
0.090000004 0.0126 0.0046342015
-0.090000004 0.0144 0.0042591095
-0.088200003 0.0144 0.0042623878
-0.086400002 0.0144 0.0061020851
-0.084600002 0.0144 0.0070425868
-0.082800001 0.0144 0.0070458651
-0.081 0.0144 0.0061118603
-0.0792 0.0144 0.0042786598
-0.077399999 0.0144 0.0042818785
-0.075599998 0.0144 0.0033469796
-0.073799998 0.0144 0.0024152994
-0.071999997 0.0144 0.0024185181
-0.070200004 0.0144 0.0024217963
-0.068400003 0.0144 0.0033633113
-0.066600002 0.0144 0.0033665895
-0.064800002 0.0144 0.0043079257
-0.063000001 0.0144 0.0043079257
-0.0612 0.0144 0.0052526593
-0.0594 0.0144 0.0043177009
-0.057599999 0.0144 0.0033828616
-0.055799998 0.0144 0.0024479032
-0.054000001 0.0144 0.0024511814
-0.052200001 0.0144 0.0024544597
-0.0504 0.0144 0.0024576783
-0.048599999 0.0144 0.0033991933
-0.046799999 0.0144 0.0034024119
-0.045000002 0.0144 0.0034056902
-0.043200001 0.0144 0.0034089684
-0.0414 0.0144 0.0034121871
-0.0396 0.0144 0.0034154654
-0.037799999 0.0144 -0.0012377501
-0.035999998 0.0144 -0.0021703243
-0.034200002 0.0144 -0.0021703243
-0.032400001 0.0144 -0.0012279153
-0.0306 0.0144 -0.00032067299
-0.0288 0.0144 -0.00032067299
-0.027000001 0.0144 -0.00032067299
-0.0252 0.0144 -0.0022477508
-0.023399999 0.0144 -0.0022477508
-0.021600001 0.0144 -0.0022477508
-0.0198 0.0144 0.031464756
-0.017999999 0.0144 0.031464756
-0.0162 0.0144 0.031464756
-0.0144 0.0144 0.032404125
-0.0126 0.0144 0.03509903
-0.0108 0.0144 0.03509903
-0.0089999996 0.0144 0.03509903
-0.0071999999 0.0144 0.033180118
-0.0054000001 0.0144 0.033180118
-0.0035999999 0.0144 0.032193065
-0.0018 0.0144 0.032193065
0 0.0144 0.032193065
0.0018 0.0144 0.033131659
0.0035999999 0.0144 0.033131659
0.0054000001 0.0144 0.034067154
0.0071999999 0.0144 0.034073532
0.0089999996 0.0144 0.034076691
0.0108 0.0144 0.03407985
0.0126 0.0144 0.033150733
0.0144 0.0144 0.033153892
0.0162 0.0144 0.033157051
0.017999999 0.0144 0.034092486
0.0198 0.0144 0.03502804
0.021600001 0.0144 0.030316532
0.023399999 0.0144 0.033172905
0.0252 0.0144 0.032243848
0.027000001 0.0144 0.031314731
0.0288 0.0144 0.031317949
0.0306 0.0144 0.031321108
0.032400001 0.0144 0.031324267
0.034200002 0.0144 0.031327426
0.035999998 0.0144 0.030398369
0.037799999 0.0144 0.030401587
0.0396 0.0144 0.029472411
0.0414 0.0144 0.028543413
0.043200001 0.0144 0.027614355
0.045000002 0.0144 0.026736498
0.046799999 0.0144 0.026736498
0.048599999 0.0144 0.0054575801
0.0504 0.0144 0.0045229197
0.052200001 0.0144 0.0035882592
0.054000001 0.0144 0.0026535392
0.055799998 0.0144 0.00078088045
0.057599999 0.0144 0.00078415871
0.0594 0.0144 0.00078743696
0.0612 0.0144 0.00079071522
0.063000001 0.0144 0.00079399347
0.064800002 0.0144 0.00079727173
0.066600002 0.0144 0.0017752647
0.068400003 0.0144 0.001778543
0.070200004 0.0144 0.0017818213
0.071999997 0.0144 0.00084620714
0.073799998 0.0144 -8.9406967e-05
0.075599998 0.0144 -8.6128712e-05
0.077399999 0.0144 -0.0010216832
0.0792 0.0144 -7.9572201e-05
0.081 0.0144 0.0017645955
0.082800001 0.0144 0.0036436915
0.084600002 0.0144 0.0064209104
0.086400002 0.0144 0.007361114
0.088200003 0.0144 0.0064274073
0.090000004 0.0144 0.003656745
-0.090000004 0.0162 0.0032837391
-0.088200003 0.0162 0.00422436
-0.086400002 0.0162 0.0060639977
-0.084600002 0.0162 0.0070035458
-0.082800001 0.0162 0.007006824
-0.081 0.0162 0.0060737729
-0.0792 0.0162 0.0042406321
-0.077399999 0.0162 0.0023726225
-0.075599998 0.0162 0.0023759007
-0.073799998 0.0162 0.001441896
-0.071999997 0.0162 0.0014451742
-0.070200004 0.0162 0.0023856759
-0.068400003 0.0162 0.0033261776
-0.066600002 0.0162 0.0033294559
-0.064800002 0.0162 0.0042699575
-0.063000001 0.0162 0.0052103996
-0.0612 0.0162 0.0042765141
-0.0594 0.0162 0.0042797327
-0.057599999 0.0162 0.0033457279
-0.055799998 0.0162 0.0033490062
-0.054000001 0.0162 0.002415061
-0.052200001 0.0162 0.0024183393
-0.0504 0.0162 0.0024216175
-0.048599999 0.0162 0.0033620596
-0.046799999 0.0162 0.0033653378
-0.045000002 0.0162 0.0024313927
-0.043200001 0.0162 0.0033718944
-0.0414 0.0162 0.003375113
-0.0396 0.0162 0.0033783913
-0.037799999 0.0162 0.0024444461
-0.035999998 0.0162 -0.0012686849
-0.034200002 0.0162 -0.0022002459
-0.032400001 0.0162 -0.00032067299
-0.0306 0.0162 -0.00032067299
-0.0288 0.0162 -0.00032067299
-0.027000001 0.0162 -0.0022477508
-0.0252 0.0162 -0.0022477508
-0.023399999 0.0162 -0.0022477508
-0.021600001 0.0162 -0.0022686124
-0.0198 0.0162 -0.0022686124
-0.017999999 0.0162 0.0032919645
-0.0162 0.0162 0.0032919645
-0.0144 0.0162 0.0032919645
-0.0126 0.0162 0.0032919645
-0.0108 0.0162 0.03509903
-0.0089999996 0.0162 0.024686933
-0.0071999999 0.0162 0.024686933
-0.0054000001 0.0162 0.024686933
-0.0035999999 0.0162 0.024686933
-0.0018 0.0162 0.024686933
0 0.0162 0.026552856
0.0018 0.0162 0.027487457
0.0035999999 0.0162 0.02935338
0.0054000001 0.0162 0.029356599
0.0071999999 0.0162 0.028428435
0.0089999996 0.0162 0.027500272
0.0108 0.0162 0.028434813
0.0126 0.0162 0.027506649
0.0144 0.0162 0.027509868
0.0162 0.0162 0.02844435
0.017999999 0.0162 0.028447568
0.0198 0.0162 0.02938211
0.021600001 0.0162 0.030316532
0.023399999 0.0162 0.03031975
0.0252 0.0162 0.028460324
0.027000001 0.0162 0.027535379
0.0288 0.0162 0.026607215
0.0306 0.0162 0.027541816
0.032400001 0.0162 0.027544975
0.034200002 0.0162 0.027548194
0.035999998 0.0162 0.026619971
0.037799999 0.0162 0.026623189
0.0396 0.0162 0.029472411
0.0414 0.0162 0.028543413
0.043200001 0.0162 0.027614355
0.045000002 0.0162 0.027614355
0.046799999 0.0162 0.0054188371
0.048599999 0.0162 0.0054188371
0.0504 0.0162 0.0035480857
0.052200001 0.0162 0.0026143789
0.054000001 0.0162 0.0016806722
0.055799998 0.0162 0.00078088045
0.057599999 0.0162 0.00078415871
0.0594 0.0162 0.00078743696
0.0612 0.0162 0.00079071522
0.063000001 0.0162 0.00079399347
0.064800002 0.0162 0.00079727173
0.066600002 0.0162 -0.0001373291
0.068400003 0.0162 -0.00013405085
0.070200004 0.0162 -0.00013077259
0.071999997 0.0162 -0.00012749434
0.073799998 0.0162 -0.00012421608
0.075599998 0.0162 -0.00012093782
0.077399999 0.0162 -0.00011765957
0.0792 0.0162 0.00082343817
0.081 0.0162 0.0026666522
0.082800001 0.0162 0.0045438409
0.084600002 0.0162 0.0063831806
0.086400002 0.0162 0.007322371
0.088200003 0.0162 0.0063896775
0.090000004 0.0162 0.0045568943
-0.090000004 0.017999999 0.0023121834
-0.088200003 0.017999999 0.003251791
-0.086400002 0.017999999 0.0060639977
-0.084600002 0.017999999 0.0060311556
-0.082800001 0.017999999 0.0060344338
-0.081 0.017999999 0.004204452
-0.0792 0.017999999 0.0032714009
-0.077399999 0.017999999 0.0023383498
-0.075599998 0.017999999 0.0014054179
-0.073799998 0.017999999 0.0014086366
-0.071999997 0.017999999 0.0014119148
-0.070200004 0.017999999 0.0023514628
-0.068400003 0.017999999 0.0032910109
-0.066600002 0.017999999 0.0032942295
-0.064800002 0.017999999 0.0032975078
-0.063000001 0.017999999 0.003300786
-0.0612 0.017999999 0.0033040643
-0.0594 0.017999999 0.0033073425
-0.057599999 0.017999999 0.0042468309
-0.055799998 0.017999999 0.0033138394
-0.054000001 0.017999999 0.0033171177
-0.052200001 0.017999999 0.0033203959
-0.0504 0.017999999 0.0033236742
-0.048599999 0.017999999 0.0033269525
-0.046799999 0.017999999 0.0033301711
-0.045000002 0.017999999 0.0023972392
-0.043200001 0.017999999 0.0024005175
-0.0414 0.017999999 0.0024037957
-0.0396 0.017999999 0.0024070144
-0.037799999 0.017999999 0.0024102926
-0.035999998 0.017999999 -0.0022348166
-0.034200002 0.017999999 -0.0031687021
-0.032400001 0.017999999 -0.0031654239
-0.0306 0.017999999 -0.0031654239
-0.0288 0.017999999 -0.0031871796
-0.027000001 0.017999999 -0.0022477508
-0.0252 0.017999999 -0.0022477508
-0.023399999 0.017999999 -0.0022477508
-0.021600001 0.017999999 -0.0022686124
-0.0198 0.017999999 -0.0022686124
-0.017999999 0.017999999 0.0032919645
-0.0162 0.017999999 0.0032919645
-0.0144 0.017999999 0.0032919645
-0.0126 0.017999999 0.0032919645
-0.0108 0.017999999 0.0032776594
-0.0089999996 0.017999999 0.024686933
-0.0071999999 0.017999999 0.024686933
-0.0054000001 0.017999999 0.024686933
-0.0035999999 0.017999999 0.024686933
-0.0018 0.017999999 0.024686933
0 0.017999999 0.026552856
0.0018 0.017999999 0.027487457
0.0035999999 0.017999999 0.02935338
0.0054000001 0.017999999 0.029356599
0.0071999999 0.017999999 0.028428435
0.0089999996 0.017999999 0.027500272
0.0108 0.017999999 0.028434813
0.0126 0.017999999 0.027506649
0.0144 0.017999999 0.027509868
0.0162 0.017999999 0.02844435
0.017999999 0.017999999 0.028447568
0.0198 0.017999999 0.027471006
0.021600001 0.017999999 0.027477384
0.023399999 0.017999999 0.028460324
0.0252 0.017999999 0.02753222
0.027000001 0.017999999 0.027535379
0.0288 0.017999999 0.026607215
0.0306 0.017999999 0.027541816
0.032400001 0.017999999 0.027544975
0.034200002 0.017999999 0.027548194
0.035999998 0.017999999 0.026619971
0.037799999 0.017999999 0.026623189
0.0396 0.017999999 0.02383256
0.0414 0.017999999 0.02383256
0.043200001 0.017999999 0.027614355
0.045000002 0.017999999 0.027614355
0.046799999 0.017999999 0.0044459701
0.048599999 0.017999999 0.0044459701
0.0504 0.017999999 0.002577126
0.052200001 0.017999999 0.0016444325
0.054000001 0.017999999 0.0016806722
0.055799998 0.017999999 0.00074702501
0.057599999 0.017999999 -0.00018680096
0.0594 0.017999999 -0.0001835227
0.0612 0.017999999 -0.00018024445
0.063000001 0.017999999 -0.00017696619
0.064800002 0.017999999 -0.00017368793
0.066600002 0.017999999 -0.0011073351
0.068400003 0.017999999 -0.00016713142
0.070200004 0.017999999 -0.00016385317
0.071999997 0.017999999 -0.00016057491
0.073799998 0.017999999 0.0026196241
0.075599998 0.017999999 0.0026229024
0.077399999 0.017999999 0.0026261806
0.0792 0.017999999 0.0026294589
0.081 0.017999999 0.0035687089
0.082800001 0.017999999 0.0054439902
0.084600002 0.017999999 0.0063831806
0.086400002 0.017999999 0.0054155588
0.088200003 0.017999999 0.0045210123
0.090000004 0.017999999 0.0045210123
-0.090000004 0.0198 0.0022831559
-0.088200003 0.0198 0.0022831559
-0.086400002 0.0198 0.005092442
-0.084600002 0.0198 0.0060311556
-0.082800001 0.0198 0.0060344338
-0.081 0.0198 0.0041701794
-0.0792 0.0198 0.0032380819
-0.077399999 0.0198 0.0023061037
-0.075599998 0.0198 0.0013739467
-0.073799998 0.0198 0.0013772249
-0.071999997 0.0198 0.0013805032
-0.070200004 0.0198 0.0023191571
-0.068400003 0.0198 0.0032576919
-0.066600002 0.0198 0.0032609701
-0.064800002 0.0198 0.0023289919
-0.063000001 0.0198 0.0023322701
-0.0612 0.0198 0.0023355484
-0.0594 0.0198 0.0032740831
-0.057599999 0.0198 0.0042126775
-0.055799998 0.0198 0.00328058
-0.054000001 0.0198 0.0032838583
-0.052200001 0.0198 0.0042224526
-0.0504 0.0198 0.0042257309
-0.048599999 0.0198 0.0042290092
-0.046799999 0.0198 0.0032969713
-0.045000002 0.0198 0.0033002496
-0.043200001 0.0198 0.0023682714
-0.0414 0.0198 0.0023715496
-0.0396 0.0198 0.0014395118
-0.037799999 0.0198 0.00144279
-0.035999998 0.0198 -0.00039178133
-0.034200002 0.0198 -0.0013247132
-0.032400001 0.0198 -0.0031654239
-0.0306 0.0198 -0.0041267276
-0.0288 0.0198 -0.0031871796
-0.027000001 0.0198 -0.0022477508
-0.0252 0.0198 -0.0022477508
-0.023399999 0.0198 -0.0022686124
-0.021600001 0.0198 -0.0022686124
-0.0198 0.0198 0.0032886863
-0.017999999 0.0198 0.0032919645
-0.0162 0.0198 0.0032919645
-0.0144 0.0198 0.0032919645
-0.0126 0.0198 0.0032776594
-0.0108 0.0198 0.0032776594
-0.0089999996 0.0198 0.0032776594
-0.0071999999 0.0198 0.024641395
-0.0054000001 0.0198 0.024641395
-0.0035999999 0.0198 0.024641395
-0.0018 0.0198 0.024641395
0 0.0198 0.024644613
0.0018 0.0198 0.026508629
0.0035999999 0.0198 0.026511848
0.0054000001 0.0198 0.025584638
0.0071999999 0.0198 0.025587857
0.0089999996 0.0198 0.024660647
0.0108 0.0198 0.024663866
0.0126 0.0198 0.024667084
0.0144 0.0198 0.024670303
0.0162 0.0198 0.02560389
0.017999999 0.0198 0.026537478
0.0198 0.0198 0.027471006
0.021600001 0.0198 0.027477384
0.023399999 0.0198 0.026550233
0.0252 0.0198 0.025623083
0.027000001 0.0198 0.025626302
0.0288 0.0198 0.02562952
0.0306 0.0198 0.025632739
0.032400001 0.0198 0.026566267
0.034200002 0.0198 0.026569486
0.035999998 0.0198 0.025642335
0.037799999 0.0198 0.024715185
0.0396 0.0198 0.02383256
0.0414 0.0198 0.02383256
0.043200001 0.0198 0.02383256
0.045000002 0.0198 0.0034768581
0.046799999 0.0198 0.0034768581
0.048599999 0.0198 0.0034768581
0.0504 0.0198 0.0016099215
0.052200001 0.0198 0.0016444325
0.054000001 0.0198 0.00071156025
0.055799998 0.0198 0.0007148385
0.057599999 0.0198 -0.00021791458
0.0594 0.0198 -0.00021463633
0.0612 0.0198 -0.00021129847
0.063000001 0.0198 -0.00020807981
0.064800002 0.0198 -0.00020474195
0.066600002 0.0198 -0.0002014637
0.068400003 0.0198 0.00073778629
0.070200004 0.0198 0.00074106455
0.071999997 0.0198 0.0025843978
0.073799998 0.0198 0.002587676
0.075599998 0.0198 0.001655817
0.077399999 0.0198 0.0016590953
0.0792 0.0198 0.0016623735
0.081 0.0198 0.0016656518
0.082800001 0.0198 0.0035390258
0.084600002 0.0198 0.0054122806
0.086400002 0.0198 0.0054155588
0.088200003 0.0198 0.0054188371
0.090000004 0.0198 0.0044870973
-0.090000004 0.021600001 0.0022526383
-0.088200003 0.021600001 0.0041247606
-0.086400002 0.021600001 0.0041247606
-0.084600002 0.021600001 0.0050624013
-0.082800001 0.021600001 0.0041345954
-0.081 0.021600001 0.0032035112
-0.0792 0.021600001 0.0032067895
-0.077399999 0.021600001 0.0022755861
-0.075599998 0.021600001 0.0013739467
-0.073799998 0.021600001 0.0013772249
-0.071999997 0.021600001 0.0013805032
-0.070200004 0.021600001 0.0022886992
-0.068400003 0.021600001 0.0022919774
-0.066600002 0.021600001 0.0022952557
-0.064800002 0.021600001 0.0022985339
-0.063000001 0.021600001 0.0023018122
-0.0612 0.021600001 0.0023050904
-0.0594 0.021600001 0.0032427907
-0.057599999 0.021600001 0.003246069
-0.055799998 0.021600001 0.0032493472
-0.054000001 0.021600001 0.0032526255
-0.052200001 0.021600001 0.0041901469
-0.0504 0.021600001 0.0041934252
-0.048599999 0.021600001 0.0041967034
-0.046799999 0.021600001 0.0032656789
-0.045000002 0.021600001 0.0032690167
-0.043200001 0.021600001 0.0032722354
-0.0414 0.021600001 0.0023411512
-0.0396 0.021600001 0.0023444295
-0.037799999 0.021600001 0.00144279
-0.035999998 0.021600001 0.00051409006
-0.034200002 0.021600001 -0.00041788816
-0.032400001 0.021600001 -0.0013498664
-0.0306 0.021600001 -0.0041267276
-0.0288 0.021600001 -0.0022784472
-0.027000001 0.021600001 -0.0022751689
-0.0252 0.021600001 -0.0013366938
-0.023399999 0.021600001 -0.0022686124
-0.021600001 0.021600001 -0.0022686124
-0.0198 0.021600001 0.0032886863
-0.017999999 0.021600001 0.0032919645
-0.0162 0.021600001 0.0032919645
-0.0144 0.021600001 0.0032919645
-0.0126 0.021600001 0.0032776594
-0.0108 0.021600001 0.0032776594
-0.0089999996 0.021600001 0.0032776594
-0.0071999999 0.021600001 0.0060529113
-0.0054000001 0.021600001 0.024641395
-0.0035999999 0.021600001 0.024641395
-0.0018 0.021600001 0.024641395
0 0.021600001 0.024644613
0.0018 0.021600001 0.026508629
0.0035999999 0.021600001 0.026511848
0.0054000001 0.021600001 0.025584638
0.0071999999 0.021600001 0.025587857
0.0089999996 0.021600001 0.024660647
0.0108 0.021600001 0.024663866
0.0126 0.021600001 0.024667084
0.0144 0.021600001 0.024670303
0.0162 0.021600001 0.02560389
0.017999999 0.021600001 0.026537478
0.0198 0.021600001 0.027471006
0.021600001 0.021600001 0.027477384
0.023399999 0.021600001 0.026550233
0.0252 0.021600001 0.025623083
0.027000001 0.021600001 0.025626302
0.0288 0.021600001 0.02562952
0.0306 0.021600001 0.025632739
0.032400001 0.021600001 0.026566267
0.034200002 0.021600001 0.026569486
0.035999998 0.021600001 0.025642335
0.037799999 0.021600001 0.024715185
0.0396 0.021600001 0.021927357
0.0414 0.021600001 0.021927357
0.043200001 0.021600001 0.021927357
0.045000002 0.021600001 0.0043148398
0.046799999 0.021600001 0.0025115609
0.048599999 0.021600001 0.0025115609
0.0504 0.021600001 0.0016099215
0.052200001 0.021600001 0.00067812204
0.054000001 0.021600001 -0.00025367737
0.055799998 0.021600001 -0.00025039911
0.057599999 0.021600001 -0.00024712086
0.0594 0.021600001 -0.0002438426
0.0612 0.021600001 -0.00024050474
0.063000001 0.021600001 -0.00023722649
0.064800002 0.021600001 -0.00023394823
0.066600002 0.021600001 0.00070440769
0.068400003 0.021600001 0.0025476217
0.070200004 0.021600001 0.0025509
0.071999997 0.021600001 0.0025541782
0.073799998 0.021600001 0.0016233921
0.075599998 0.021600001 0.001655817
0.077399999 0.021600001 0.0016590953
0.0792 0.021600001 0.0016623735
0.081 0.021600001 0.0016656518
0.082800001 0.021600001 0.0016397834
0.084600002 0.021600001 0.00351125
0.086400002 0.021600001 0.0035145283
0.088200003 0.021600001 0.0044518113
0.090000004 0.021600001 0.0044550896
-0.090000004 0.023399999 0.001290679
-0.088200003 0.023399999 0.0031608343
-0.086400002 0.023399999 0.0040976405
-0.084600002 0.023399999 0.0041009188
-0.082800001 0.023399999 0.004104197
-0.081 0.023399999 0.0041074753
-0.0792 0.023399999 0.0041107535
-0.077399999 0.023399999 0.0041140318
-0.075599998 0.023399999 0.0031837821
-0.073799998 0.023399999 0.0022536516
-0.071999997 0.023399999 0.0022569299
-0.070200004 0.023399999 0.0022602081
-0.068400003 0.023399999 0.0022634864
-0.066600002 0.023399999 0.0032001734
-0.064800002 0.023399999 0.0032034516
-0.063000001 0.023399999 0.0041401982
-0.0612 0.023399999 0.0041434765
-0.0594 0.023399999 0.0041467547
-0.057599999 0.023399999 0.0022831559
-0.055799998 0.023399999 0.0022864938
-0.054000001 0.023399999 0.0022897124
-0.052200001 0.023399999 0.0032263994
-0.0504 0.023399999 0.004163146
-0.048599999 0.023399999 0.0050997138
-0.046799999 0.023399999 0.0041696429
-0.045000002 0.023399999 0.0041729808
-0.043200001 0.023399999 0.0032427907
-0.0414 0.023399999 0.003246069
-0.0396 0.023399999 0.0032493472
-0.037799999 0.023399999 0.0014166832
-0.035999998 0.023399999 0.00048565865
-0.034200002 0.023399999 0.0004889369
-0.032400001 0.023399999 -0.00044208765
-0.0306 0.023399999 -0.00043874979
-0.0288 0.023399999 -0.00043547153
-0.027000001 0.023399999 -0.0013664365
-0.0252 0.023399999 -0.0013631582
-0.023399999 0.023399999 -0.00135988
-0.021600001 0.023399999 0.0014187694
-0.0198 0.023399999 0.0032886863
-0.017999999 0.023399999 0.0032919645
-0.0162 0.023399999 0.0032919645
-0.0144 0.023399999 0.0014063716
-0.0126 0.023399999 0.0032776594
-0.0108 0.023399999 0.0032776594
-0.0089999996 0.023399999 0.0032776594
-0.0071999999 0.023399999 0.0060529113
-0.0054000001 0.023399999 0.0060529113
-0.0035999999 0.023399999 0.024641395
-0.0018 0.023399999 0.024641395
0 0.023399999 0.024644613
0.0018 0.023399999 0.024644613
0.0035999999 0.023399999 0.025584638
0.0054000001 0.023399999 0.025584638
0.0071999999 0.023399999 0.024660647
0.0089999996 0.023399999 0.024660647
0.0108 0.023399999 0.024663866
0.0126 0.023399999 0.024667084
0.0144 0.023399999 0.024670303
0.0162 0.023399999 0.02560389
0.017999999 0.023399999 0.026537478
0.0198 0.023399999 0.027471006
0.021600001 0.023399999 0.020931482
0.023399999 0.023399999 0.020931482
0.0252 0.023399999 0.020931482
0.027000001 0.023399999 0.01907593
0.0288 0.023399999 0.018149734
0.0306 0.023399999 0.018149734
0.032400001 0.023399999 0.025632739
0.034200002 0.023399999 0.026569486
0.035999998 0.023399999 0.025642335
0.037799999 0.023399999 0.021927357
0.0396 0.023399999 0.021927357
0.0414 0.023399999 0.021927357
0.043200001 0.023399999 0.0043148398
0.045000002 0.023399999 0.0043148398
0.046799999 0.023399999 0.0043148398
0.048599999 0.023399999 0.0034164786
0.0504 0.023399999 0.0024865866
0.052200001 0.023399999 -0.00028425455
0.054000001 0.023399999 -0.0012150407
0.055799998 0.023399999 -0.0012117028
0.057599999 0.023399999 -0.00027436018
0.0594 0.023399999 -0.00027108192
0.0612 0.023399999 -0.00026780367
0.063000001 0.023399999 -0.00026452541
0.064800002 0.023399999 -0.00026124716
0.066600002 0.023399999 0.00067615509
0.068400003 0.023399999 0.0025194287
0.070200004 0.023399999 0.002522707
0.071999997 0.023399999 0.0025259852
0.073799998 0.023399999 0.0016233921
0.075599998 0.023399999 0.00069260597
0.077399999 0.023399999 -0.00023823977
0.0792 0.023399999 -0.00023490191
0.081 0.023399999 -0.00023162365
0.082800001 0.023399999 0.0025456548
0.084600002 0.023399999 0.0034820437
0.086400002 0.023399999 0.003485322
0.088200003 0.023399999 0.0044217706
0.090000004 0.023399999 0.0053580999
-0.090000004 0.0252 0.001290679
-0.088200003 0.0252 0.0022007823
-0.086400002 0.0252 0.0031365752
-0.084600002 0.0252 0.0040723085
-0.082800001 0.0252 0.0031431317
-0.081 0.0252 0.00314641
-0.0792 0.0252 0.0031496882
-0.077399999 0.0252 0.0040854216
-0.075599998 0.0252 0.0040886998
-0.073799998 0.0252 0.003159523
-0.071999997 0.0252 0.0031628013
-0.070200004 0.0252 0.0022336245
-0.068400003 0.0252 0.0022369027
-0.066600002 0.0252 0.003172636
-0.064800002 0.0252 0.0041083694
-0.063000001 0.0252 0.0050441623
-0.0612 0.0252 0.0050474405
-0.0594 0.0252 0.0031857491
-0.057599999 0.0252 0.0022831559
-0.055799998 0.0252 0.0022864938
-0.054000001 0.0252 0.0022897124
-0.052200001 0.0252 0.0022664666
-0.0504 0.0252 0.0032021999
-0.048599999 0.0252 0.0041378736
-0.046799999 0.0252 0.005073607
-0.045000002 0.0252 0.0041444302
-0.043200001 0.0252 0.0041477084
-0.0414 0.0252 0.0041509867
-0.0396 0.0252 0.0041542649
-0.037799999 0.0252 0.0013892055
-0.035999998 0.0252 0.00045913458
-0.034200002 0.0252 0.00046241283
-0.032400001 0.0252 0.0013990402
-0.0306 0.0252 0.0041739345
-0.0288 0.0252 0.0041772127
-0.027000001 0.0252 0.0032480955
-0.0252 0.0252 0.00047886372
-0.023399999 0.0252 -0.00045114756
-0.021600001 0.0252 0.0014187694
-0.0198 0.0252 0.0013964772
-0.017999999 0.0252 0.0013998151
-0.0162 0.0252 0.0014030933
-0.0144 0.0252 0.0014063716
-0.0126 0.0252 0.0014096498
-0.0108 0.0252 0.0032776594
-0.0089999996 0.0252 0.0032776594
-0.0071999999 0.0252 0.0060529113
-0.0054000001 0.0252 0.0060529113
-0.0035999999 0.0252 0.0060529113
-0.0018 0.0252 0.024641395
0 0.0252 0.024644613
0.0018 0.0252 0.024644613
0.0035999999 0.0252 0.025584638
0.0054000001 0.0252 0.025584638
0.0071999999 0.0252 0.024660647
0.0089999996 0.0252 0.024660647
0.0108 0.0252 0.024663866
0.0126 0.0252 0.024667084
0.0144 0.0252 0.024670303
0.0162 0.0252 0.02560389
0.017999999 0.0252 0.026537478
0.0198 0.0252 0.020931482
0.021600001 0.0252 0.020931482
0.023399999 0.0252 0.020931482
0.0252 0.0252 0.020931482
0.027000001 0.0252 0.01907593
0.0288 0.0252 0.018149734
0.0306 0.0252 0.018149734
0.032400001 0.0252 0.018149734
0.034200002 0.0252 0.025642335
0.035999998 0.0252 0.021927357
0.037799999 0.0252 0.021927357
0.0396 0.0252 0.021927357
0.0414 0.0252 0.0043148398
0.043200001 0.0252 0.0043148398
0.045000002 0.0252 0.0043148398
0.046799999 0.0252 0.0024536848
0.048599999 0.0252 0.0015247464
0.0504 0.0252 0.0024865866
0.052200001 0.0252 0.00062352419
0.054000001 0.0252 0.00062680244
0.055799998 0.0252 0.0006300807
0.057599999 0.0252 0.0015665889
0.0594 0.0252 0.0015698671
0.0612 0.0252 0.00063997507
0.063000001 0.0252 0.00064325333
0.064800002 0.0252 0.00064653158
0.066600002 0.0252 0.0015829802
0.068400003 0.0252 0.0024930835
0.070200004 0.0252 0.0024963617
0.071999997 0.0252 0.0025259852
0.073799998 0.0252 0.0015961528
0.075599998 0.0252 0.00066626072
0.077399999 0.0252 -0.00026351213
0.0792 0.0252 0.00067287683
0.081 0.0252 0.00067615509
0.082800001 0.0252 0.0025193691
0.084600002 0.0252 0.0034548044
0.086400002 0.0252 0.0034580827
0.088200003 0.0252 0.004393518
0.090000004 0.0252 0.0043967962
-0.090000004 0.027000001 0.0012649894
-0.088200003 0.027000001 0.0021760464
-0.086400002 0.027000001 0.0021793246
-0.084600002 0.027000001 0.0021826625
-0.082800001 0.027000001 0.0021859407
-0.081 0.027000001 0.0031207204
-0.0792 0.027000001 0.0031239986
-0.077399999 0.027000001 0.0040588379
-0.075599998 0.027000001 0.0049936175
-0.073799998 0.027000001 0.0040653944
-0.071999997 0.027000001 0.0031371713
-0.070200004 0.027000001 0.0022336245
-0.068400003 0.027000001 0.0022369027
-0.066600002 0.027000001 0.003147006
-0.064800002 0.027000001 0.0040817857
-0.063000001 0.027000001 0.0050165653
-0.0612 0.027000001 0.0050198436
-0.0594 0.027000001 0.0031601787
-0.057599999 0.027000001 0.0013241768
-0.055799998 0.027000001 0.00039839745
-0.054000001 0.027000001 0.00039839745
-0.052200001 0.027000001 0.0022664666
-0.0504 0.027000001 0.0031798482
-0.048599999 0.027000001 0.0031798482
-0.046799999 0.027000001 0.0041146278
-0.045000002 0.027000001 0.0041179061
-0.043200001 0.027000001 0.0041211843
-0.0414 0.027000001 0.0041244626
-0.0396 0.027000001 0.0041277409
-0.037799999 0.027000001 0.0013636351
-0.035999998 0.027000001 0.00043457747
-0.034200002 0.027000001 0.00043785572
-0.032400001 0.027000001 0.0022812486
-0.0306 0.027000001 0.0032159686
-0.0288 0.027000001 0.0032192469
-0.027000001 0.027000001 0.0032225251
-0.0252 0.027000001 0.003225863
-0.023399999 0.027000001 0.0013899207
-0.021600001 0.027000001 0.00046092272
-0.0198 0.027000001 0.0013964772
-0.017999999 0.027000001 0.0013998151
-0.0162 0.027000001 0.0014030933
-0.0144 0.027000001 0.0014063716
-0.0126 0.027000001 0.0014096498
-0.0108 0.027000001 0.0032776594
-0.0089999996 0.027000001 0.0032554269
-0.0071999999 0.027000001 0.0060529113
-0.0054000001 0.027000001 0.0060529113
-0.0035999999 0.027000001 0.0060529113
-0.0018 0.027000001 0.0060529113
0 0.027000001 0.0050638318
0.0018 0.027000001 0.0050671101
0.0035999999 0.027000001 0.0050703883
0.0054000001 0.027000001 0.0050703883
0.0071999999 0.027000001 0.0032199621
0.0089999996 0.027000001 0.0032232404
0.0108 0.027000001 0.024663866
0.0126 0.027000001 0.0032331347
0.0144 0.027000001 0.0060251355
0.0162 0.027000001 0.0060251355
0.017999999 0.027000001 0.0069569349
0.0198 0.027000001 0.0069569349
0.021600001 0.027000001 0.0069602132
0.023399999 0.027000001 0.020931482
0.0252 0.027000001 0.01907593
0.027000001 0.027000001 0.01907593
0.0288 0.027000001 0.018149734
0.0306 0.027000001 0.018149734
0.032400001 0.027000001 0.018149734
0.034200002 0.027000001 0.006983161
0.035999998 0.027000001 0.0060579777
0.037799999 0.027000001 0.0042316318
0.0396 0.027000001 0.0042316318
0.0414 0.027000001 0.0051643252
0.043200001 0.027000001 0.0042884946
0.045000002 0.027000001 0.0042884946
0.046799999 0.027000001 0.0024292469
0.048599999 0.027000001 0.0015247464
0.0504 0.027000001 0.0015280247
0.052200001 0.027000001 0.0015313029
0.054000001 0.027000001 0.00060242414
