# .PCD v0.7 - Point Cloud Data file format
VERSION 0.7
FIELDS x y z
SIZE 4 4 4
TYPE F F F
COUNT 1 1 1
WIDTH 1255
HEIGHT 1
VIEWPOINT 0 0 0 1 0 0 0
POINTS 1255
DATA ascii
0.078897871 -0.0059879017 0.0032782555
0.080621608 -0.0059868009 0.0032814741
0.082341254 -0.0060012452 0.0042340159
0.084057197 -0.0060156411 0.0051866174
0.085777231 -0.0060145403 0.005189836
0.087497264 -0.00601346 0.0051929951
0.089228787 -0.0059968419 0.0042468905
0.090950668 -0.0059957411 0.0042501092
0.092657372 -0.0060101575 0.005202651
0.094377398 -0.0060090567 0.0052058697
-0.09347377 -0.0077897585 0.0020663738
-0.091567315 -0.0078022699 0.003020227
-0.089664571 -0.0078147538 0.0039740801
-0.08758653 -0.0078408299 0.0058786273
-0.085870184 -0.0078397291 0.005881846
-0.084329166 -0.0078250915 0.0049343705
-0.082957901 -0.0077967658 0.0030363202
-0.081236027 -0.0077956649 0.0030395389
-0.079344369 -0.0078081489 0.003993392
-0.077456422 -0.0078206882 0.0049472451
-0.075738244 -0.0078195874 0.0049504638
-0.07402005 -0.0078184865 0.0049536824
-0.072464235 -0.0078037456 0.0040062666
-0.070744194 -0.0078026447 0.0040094852
-0.069024168 -0.0078015439 0.0040127039
-0.067460947 -0.0077868584 0.0030652881
-0.065739058 -0.0077857575 0.0030685067
-0.064017184 -0.0077846567 0.0030717254
-0.062446572 -0.0077699227 0.0021243691
-0.060573421 -0.0077824551 0.0030781627
-0.058851533 -0.0077813542 0.0030813813
-0.057275377 -0.0077666203 0.0021340251
-0.055695526 -0.0077519142 0.0011866689
-0.053969942 -0.0077508134 0.0011898875
-0.052244343 -0.0077497126 0.0011931062
-0.050380431 -0.007762217 0.0021468997
-0.048520245 -0.0077747488 0.0031006932
-0.047067605 -0.0077463896 0.0012028217
-0.045607559 -0.0077180304 -0.00069504976
-0.043878287 -0.0077169295 -0.00069183111
-0.041374549 -0.0077976319 0.005014658
-0.032637715 -0.0081896819 0.032589853
-0.030486442 -0.00824311 0.036395133
-0.028709471 -0.0082557034 0.037348747
-0.026936196 -0.0082682688 0.038302362
-0.025282748 -0.0082672089 0.038305461
-0.02374357 -0.0082525238 0.037358046
-0.022088259 -0.0082514836 0.037361085
-0.020432964 -0.0082504237 0.037364185
-0.018886387 -0.0082356902 0.036416829
-0.017549887 -0.0081936978 0.033568382
-0.016727448 -0.0080834813 0.025967479
-0.015176885 -0.0076026316 -0.0072903633
-0.0062867329 -0.0081316866 0.029788196
-0.0039720312 -0.0082261693 0.036444664
-0.0021344125 -0.0082524084 0.038348734
-3.9026141e-05 -0.0083196126 0.043104172
0.0018647909 -0.0083595458 0.045958638
0.0035881326 -0.0083721597 0.046912193
0.0052249432 -0.0083711203 0.046915233
0.0065378025 -0.0083154133 0.04311645
0.007944569 -0.0082734162 0.040268183
0.0091305971 -0.0081903692 0.034568548
0.010716006 -0.0081756357 0.033621192
0.012599476 -0.008215569 0.036475658
0.014184892 -0.0082008429 0.035528362
0.015494429 -0.0081314212 0.030779243
0.026944388 -0.0080692675 0.026999474
0.028840415 -0.0081228996 0.030804157
0.030721646 -0.008176568 0.034608901
0.03243389 -0.0081891818 0.035562456
0.034092888 -0.008188122 0.035565555
0.03575189 -0.0081870621 0.035568655
0.037410893 -0.0081859808 0.035571814
0.039069895 -0.008184921 0.035574913
0.040686745 -0.0081701875 0.034627557
0.042266995 -0.0081417952 0.032729864
0.043854639 -0.0081132986 0.030832231
0.04533989 -0.0080438107 0.026083469
0.046739377 -0.0079332357 0.018483698
0.048267156 -0.0078637274 0.013734996
0.049751334 -0.0077667623 0.0070856214
0.051407412 -0.007738309 0.0051881075
0.053125598 -0.0077372077 0.0051913261
0.054843783 -0.0077361069 0.0051945448
0.056538314 -0.0077212634 0.004247427
0.058236539 -0.0077064969 0.0033002496
0.059958424 -0.007705396 0.0033034682
0.061680309 -0.0077042952 0.0033066869
0.063385934 -0.0076894797 0.0023595691
0.06510967 -0.0076883789 0.0023627877
0.066845961 -0.0077009923 0.0033163428
0.068567842 -0.0076998915 0.0033195615
0.070289731 -0.0076987906 0.0033227801
0.072011612 -0.0076976898 0.0033259988
0.073733494 -0.007696589 0.0033292174
0.075455375 -0.0076954882 0.0033324361
0.077177264 -0.0076943873 0.0033356547
0.078899145 -0.0076932865 0.0033388734
0.080621026 -0.0076921857 0.003342092
0.082338825 -0.0077047716 0.0042956471
0.08405292 -0.0077174334 0.0052491426
0.085771106 -0.0077163326 0.0052523613
0.087498926 -0.0077014687 0.0043053031
0.089218959 -0.0077003678 0.0043085217
0.090938993 -0.007699267 0.0043117404
0.092659026 -0.0076981662 0.004314959
0.09437906 -0.0076970858 0.0043181181
-0.093472101 -0.0094814366 0.0011767149
-0.091565661 -0.0094921095 0.0021315217
-0.089662917 -0.009502735 0.0030863881
-0.087763883 -0.0095134638 0.0040411949
-0.086045705 -0.009512363 0.0040444136
-0.084327511 -0.0095112827 0.0040475726
-0.082782783 -0.0094983317 0.0030992627
-0.081234373 -0.0094855046 0.0021508336
-0.079512484 -0.0094844038 0.0021540523
-0.077622674 -0.0094950488 0.0031088591
-0.07573659 -0.0095057786 0.0040636659
-0.074018396 -0.0095046777 0.0040668845
-0.072300233 -0.0095035769 0.0040701032
-0.070421524 -0.0095142704 0.0050248504
-0.068863846 -0.0095013753 0.0040765405
-0.067302473 -0.0094884438 0.003128171
-0.065737404 -0.0094755972 0.0021798015
-0.06401553 -0.0094744964 0.0021830201
-0.062293641 -0.0094733955 0.0021862388
-0.060571767 -0.0094722947 0.0021894574
-0.058849879 -0.0094711939 0.0021926761
-0.057273708 -0.0094582979 0.0012443662
-0.055693857 -0.0094453748 0.00029605627
-0.053968273 -0.0094442535 0.00029933453
-0.052102499 -0.0094549749 0.0012540817
-0.05024045 -0.0094656898 0.0022087693
-0.048518591 -0.0094645889 0.002211988
-0.047065936 -0.0094398502 0.00031220913
-0.04560589 -0.0094151404 -0.0015875697
-0.043745697 -0.0094258338 -0.00063282251
-0.041114748 -0.0095074121 0.0060309172
-0.032512583 -0.0098350244 0.03268224
-0.030484848 -0.0098694442 0.035539806
-0.028588049 -0.0098919943 0.037445903
-0.026816614 -0.0099027483 0.038400471
-0.025165021 -0.0099016884 0.038403571
-0.023513414 -0.0099006286 0.03840667
-0.021974236 -0.0098877735 0.037458241
-0.020210214 -0.0098985285 0.038412809
-0.018776067 -0.0098738391 0.036512971
-0.017441399 -0.0098372782 0.033661664
-0.016725823 -0.0097297868 0.025101662
-0.014976241 -0.009336072 -0.0062866211
-0.0060033202 -0.0098061869 0.031780541
-0.0037862659 -0.0098761339 0.037492275
-0.0018621162 -0.0099106152 0.040349662
0.00013932586 -0.0099569522 0.044158399
0.0020394474 -0.0099913776 0.047015786
0.0036743954 -0.0099903382 0.047018826
0.0053921938 -0.010001162 0.047973275
0.0068633333 -0.0099763954 0.046073496
0.0083418563 -0.009951693 0.044173777
0.0090549067 -0.0098084407 0.032759964
0.010642171 -0.0097955456 0.031811655
0.01260107 -0.0098418826 0.035620391
0.014258228 -0.0098408228 0.035623491
0.015565924 -0.0097804889 0.030869663
0.027002946 -0.0097255893 0.02708596
0.028897118 -0.0097719673 0.030894578
0.030829739 -0.0098302215 0.035654485
0.032538284 -0.0098410174 0.036608934
0.034193587 -0.0098399781 0.036611974
0.035848886 -0.0098389173 0.036615074
0.037504189 -0.0098378574 0.036618173
0.039115492 -0.0098249419 0.035669923
0.040772643 -0.009823882 0.035673022
0.042308901 -0.0097871786 0.032822132
0.043933149 -0.0097742621 0.031873882
0.045414709 -0.0097138062 0.027120411
0.049784034 -0.0094611878 0.0071520805
0.051438272 -0.009436355 0.0052526593
0.05315461 -0.0094352541 0.005255878
0.054870941 -0.0094341533 0.0052590966
0.056587279 -0.0094330525 0.0052623153
0.058281809 -0.0094200959 0.0043141842
0.059999995 -0.0094189951 0.0043174028
0.061700076 -0.0094059622 0.0033693314
0.063420109 -0.0094048614 0.00337255
0.065125734 -0.0093919123 0.0024244785
0.066847622 -0.0093908114 0.0024276972
0.06858021 -0.0094015589 0.003382206
0.070300244 -0.0094004581 0.0033854246
0.072020277 -0.0093993777 0.0033885837
0.073740311 -0.0093982769 0.0033918023
0.075460345 -0.0093971761 0.003395021
0.077180378 -0.0093960753 0.0033982396
0.078900412 -0.0093949744 0.0034014583
0.080620453 -0.0093938736 0.0034046769
0.082336396 -0.0094047049 0.0043591857
0.084048636 -0.0094155008 0.0053136349
0.08577276 -0.0094025237 0.0043655634
0.087490946 -0.0094014229 0.004368782
0.089220621 -0.0093883695 0.0034207702
0.090940654 -0.0093872687 0.0034239888
0.092660688 -0.0093861679 0.0034272075
0.094380721 -0.009385067 0.0034304261
-0.093285881 -0.01118303 0.0012396574
-0.091563992 -0.011181929 0.0012428761
-0.089480408 -0.011200756 0.0031511784
-0.087583221 -0.011209646 0.0041069388
-0.085866876 -0.011208545 0.0041101575
-0.084150545 -0.011207445 0.0041133761
-0.082607649 -0.011196353 0.003164053
-0.080889486 -0.011195252 0.0031672716
-0.079341047 -0.011184159 0.0022179484
-0.077621005 -0.011183058 0.0022211671
-0.075734921 -0.011191969 0.003176868
-0.073852547 -0.01120086 0.0041326284
-0.071973853 -0.011209771 0.0050883293
-0.070259355 -0.01120867 0.005091548
-0.068544872 -0.011207569 0.0050947666
-0.066987194 -0.011196477 0.0041454434
-0.065425821 -0.011185364 0.0031961799
-0.063860737 -0.011174272 0.0022468567
-0.062291972 -0.011163214 0.0012975931
-0.060570098 -0.011162113 0.0013008118
-0.058700629 -0.011170969 0.0022565126
-0.057126336 -0.011159912 0.0013072491
-0.055404447 -0.011158811 0.0013104677
-0.053540535 -0.011167667 0.0022661686
-0.051820494 -0.011166566 0.0022693872
-0.050238781 -0.011155508 0.0013201237
-0.048380442 -0.011164364 0.0022758245
-0.046929635 -0.011143323 0.00037407875
-0.04547146 -0.011122205 -0.0015276074
-0.043613106 -0.011131137 -0.00057196617
-0.041113093 -0.011190038 0.0051460266
-0.03238745 -0.011476802 0.032776535
-0.03036157 -0.011505763 0.035636961
-0.028586455 -0.011514659 0.036592543
-0.02681502 -0.011523603 0.037548065
-0.025047302 -0.011532604 0.038503587
-0.023397543 -0.011531563 0.038506627
-0.02186022 -0.011520443 0.037557304
-0.020098038 -0.011529444 0.038512826
-0.018557012 -0.011518323 0.037563503
-0.017332926 -0.011477252 0.033756971
-0.016619176 -0.011386028 0.025188386
-0.014875077 -0.011052238 -0.0062314868
-0.0058138445 -0.011459799 0.032826245
-0.0036925897 -0.011508823 0.037591279
-0.0017702878 -0.011537845 0.040451527
0.00022929907 -0.011576893 0.044264138
0.0020410269 -0.011595882 0.046171963
0.0037606582 -0.011604896 0.047127366
0.0053937733 -0.011603856 0.047130406
0.0068649128 -0.011582767 0.04522872
0.0082643107 -0.011551604 0.04237473
0.0092110857 -0.011460272 0.033806622
0.010719217 -0.011439154 0.031904936
0.012676261 -0.011478242 0.035717428
0.014331564 -0.011477182 0.035720527
0.01563742 -0.011425928 0.030961931
0.0270615 -0.011378299 0.027174413
0.029008906 -0.011427472 0.031939089
0.030937821 -0.011476618 0.036703765
0.032642663 -0.011485583 0.037659228
0.034294266 -0.011484523 0.037662327
0.035945866 -0.011483484 0.037665367
0.03759747 -0.011482423 0.037668467
0.039249074 -0.011481363 0.037671566
0.040816385 -0.011460241 0.035770059
0.042391092 -0.01143907 0.033868611
0.044011645 -0.011427957 0.032919347
0.045489516 -0.011376602 0.028161049
0.049847789 -0.011162114 0.0081726909
0.051469129 -0.011130837 0.0053191185
0.053210963 -0.011139774 0.006274581
0.054923598 -0.011138673 0.0062777996
0.056612585 -0.011127555 0.0053287148
0.058327071 -0.011126454 0.0053319335
0.060041554 -0.011125353 0.0053351521
0.06173794 -0.011114179 0.0043860674
0.063438021 -0.011102985 0.0034370422
0.065156206 -0.011101884 0.0034402609
0.066861838 -0.011090689 0.0024912357
0.068592571 -0.011099682 0.0034466982
0.070310757 -0.011098581 0.0034499168
0.072028942 -0.0110975 0.0034530759
0.073752284 -0.011106493 0.0044085383
0.075468622 -0.011105392 0.004411757
0.0771835 -0.011094198 0.0034627318
0.078901678 -0.011093097 0.0034659505
0.080619864 -0.011091996 0.0034691691
0.08233396 -0.011101009 0.004424572
0.084050298 -0.011099909 0.0044277906
0.085774422 -0.011088694 0.0034788251
0.0874926 -0.011087593 0.0034820437
0.089210786 -0.011086512 0.0034852028
0.090928972 -0.011085412 0.0034884214
0.092631966 -0.011094425 0.0044438243
0.094365343 -0.01108321 0.0034948587
-0.093468778 -0.012864744 -0.00060254335
-0.091562338 -0.012871796 0.0003541708
-0.089659594 -0.012878793 0.001310885
-0.087581553 -0.012894055 0.0032210946
-0.085865207 -0.012892954 0.0032243133
-0.084148876 -0.012891853 0.0032275319
-0.082605995 -0.012882599 0.0022772551
-0.080887832 -0.012881498 0.0022804737
-0.079339392 -0.012872188 0.0013301969
-0.077619351 -0.012871088 0.0013334155
-0.075899325 -0.012869987 0.0013366342
-0.074015073 -0.012877115 0.0022932887
-0.072134532 -0.012884168 0.0032500029
-0.070418201 -0.012883067 0.0032532215
-0.068543203 -0.01289014 0.0042098761
-0.066985525 -0.012880885 0.0032595992
-0.065424167 -0.012871611 0.002309382
-0.063705988 -0.01287051 0.0023126006
-0.062139057 -0.0128612 0.0013623238
-0.060419016 -0.012860099 0.0013655424
-0.058698975 -0.012858998 0.0013687611
-0.056978948 -0.012857897 0.0013719797
-0.055402793 -0.012848679 0.00042176247
-0.053538881 -0.012855696 0.001378417
-0.05181884 -0.012854595 0.0013816357
-0.050237127 -0.012845377 0.00043141842
-0.048378788 -0.012852393 0.001388073
-0.046927981 -0.012835001 -0.00051558018
-0.045337029 -0.012825706 -0.0014657378
-0.043611445 -0.012824605 -0.0014625192
-0.040982366 -0.012880725 0.005214572
-0.03213881 -0.013123132 0.033826172
-0.03011664 -0.013146577 0.03668946
-0.02834522 -0.013153768 0.037645936
-0.02669546 -0.013152707 0.037649035
-0.024929591 -0.013159841 0.038605511
-0.023281679 -0.013158802 0.038608551
-0.021633781 -0.013157742 0.03861165
-0.019875303 -0.013164848 0.039568126
-0.018446699 -0.013147428 0.037664473
-0.017117575 -0.013121806 0.034807384
-0.016512536 -0.013038688 0.025276899
-0.0148734 -0.012756589 -0.0071278214
-0.006000109 -0.013073326 0.030062377
-0.003783077 -0.013121484 0.035785496
-0.0019491687 -0.013136888 0.037695289
5.4113567e-05 -0.013168638 0.041511714
0.001956068 -0.013192221 0.044374764
0.003677547 -0.013199375 0.04533118
0.0053125098 -0.013198336 0.04533422
0.0067855045 -0.013180867 0.043430626
0.0083450228 -0.013171621 0.042480409
0.0097536743 -0.01314591 0.039623499
0.01102256 -0.013103805 0.034860015
0.012751445 -0.013110903 0.035816431
0.014333159 -0.013101685 0.034866214
0.015569143 -0.013051221 0.029149592
0.027176991 -0.013035566 0.028218031
0.029065605 -0.013067424 0.032034218
0.030992657 -0.013107518 0.036803663
0.032695651 -0.013114729 0.037760079
0.034345403 -0.013113689 0.037763119
0.035947461 -0.013104338 0.036812961
0.037644908 -0.013111569 0.037769318
0.039294664 -0.013110529 0.037772357
0.040902272 -0.013101178 0.0368222
0.042513583 -0.013091884 0.035872042
0.044128586 -0.013082644 0.034921885
0.045600917 -0.013040341 0.030158818
0.046918005 -0.012956803 0.020629644
0.048436567 -0.012914556 0.015866578
0.049849436 -0.012839233 0.0072907209
0.051470783 -0.012813407 0.0044342279
0.053212613 -0.012820505 0.0053906441
0.054925248 -0.012819404 0.0053938627
0.056637887 -0.012818303 0.0053970814
0.058350522 -0.012817223 0.0054002404
0.060063157 -0.012816122 0.0054034591
0.061775796 -0.012815021 0.0054066777
0.063472182 -0.012805741 0.0044566393
0.065172262 -0.012796385 0.0035066605
0.066876046 -0.012787029 0.0025566816
0.068594232 -0.012785928 0.0025599003
0.070312418 -0.012784828 0.0025631189
0.072037607 -0.012792002 0.0035194755
0.073759094 -0.012799157 0.0044758916
0.075473577 -0.012798056 0.0044791102
0.077188067 -0.012796955 0.0044823289
0.078902945 -0.012787599 0.0035323501
0.080619283 -0.012786498 0.0035355687
0.082335614 -0.012785418 0.0035387278
0.084051952 -0.012784317 0.0035419464
0.085776076 -0.012774941 0.0025920272
0.087494262 -0.01277384 0.0025952458
0.089212447 -0.012772739 0.0025984645
0.090930633 -0.012771659 0.0026016235
0.092633627 -0.012778834 0.0035579801
0.094349958 -0.012777733 0.0035611987
-0.094818048 -0.014570124 0.00041347742
-0.093098007 -0.014569024 0.00041669607
-0.091377966 -0.014567923 0.00041991472
-0.089477099 -0.014573173 0.0013776422
-0.087400891 -0.014584757 0.0032897592
-0.085509248 -0.014589972 0.004247427
-0.083796613 -0.014588891 0.004250586
-0.082257442 -0.014581475 0.0032993555
-0.080542959 -0.014580375 0.0033025742
-0.078998215 -0.014572931 0.0023513436
-0.077449791 -0.014565487 0.0014001131
-0.075731613 -0.014564387 0.0014033318
-0.074013419 -0.014563286 0.0014065504
-0.072132878 -0.014568548 0.0023641586
-0.070256032 -0.01457379 0.0033218265
-0.068382896 -0.014579024 0.0042794347
-0.066670246 -0.014577923 0.0042826533
-0.065112583 -0.014570508 0.0033314228
-0.0633981 -0.014569407 0.0033346415
-0.061834864 -0.014561963 0.0023834109
-0.060118534 -0.014560862 0.0023866296
-0.058402188 -0.014559762 0.0023898482
-0.056685872 -0.014558661 0.0023930669
-0.054969527 -0.01455756 0.0023962855
-0.053253196 -0.01455648 0.0023994446
-0.051536851 -0.014555379 0.0024026632
-0.05009716 -0.014541524 0.00049710274
-0.048240669 -0.014546813 0.001454711
-0.046791725 -0.014532986 -0.00045084953
-0.045069836 -0.014531885 -0.00044763088
-0.042955175 -0.014549894 0.0024186969
-0.031766653 -0.01476852 0.035833955
-0.029750042 -0.014786563 0.038700104
-0.028103985 -0.014785502 0.038703203
-0.026457928 -0.014784463 0.038706243
-0.024811879 -0.014783403 0.038709342
-0.023165822 -0.014782343 0.038712442
-0.021407343 -0.014787715 0.039669812
-0.019763134 -0.014786654 0.039672911
-0.018227652 -0.014779204 0.038721621
-0.016902231 -0.01475902 0.035861731
-0.015985802 -0.014713283 0.02918458
-0.014672779 -0.014473728 -0.0061155558
-0.0061863586 -0.014694114 0.027294636
-0.0041497946 -0.014718601 0.031114936
-0.0023084879 -0.014730357 0.033026636
-0.0003862083 -0.014748461 0.035892606
0.0015249923 -0.014766564 0.038758576
0.0033404082 -0.014778312 0.040670216
0.0051484257 -0.01479006 0.042581856
0.0068680644 -0.014795452 0.043539166
0.0085840002 -0.014800789 0.044496477
0.010064393 -0.014786921 0.042591035
0.011476748 -0.014766676 0.039731324
0.012973785 -0.014752829 0.037825823
0.014549956 -0.014745393 0.036874652
0.027235541 -0.014679202 0.028311312
0.029122289 -0.014703771 0.032131374
0.031047489 -0.014734833 0.036905527
0.032748636 -0.014740169 0.037862837
0.034396537 -0.014739129 0.037865877
0.035996746 -0.014731673 0.036914766
0.037692342 -0.01473703 0.037872016
0.03934025 -0.01473597 0.037875116
0.040988151 -0.014734909 0.037878215
0.042555466 -0.014721001 0.035972893
0.04420707 -0.014719941 0.035975993
0.045675706 -0.014686738 0.031208098
0.049882129 -0.014522796 0.0073629022
0.051472437 -0.014495976 0.0035493374
0.053214267 -0.014501272 0.0045067668
0.054952398 -0.014506636 0.005464077
0.056663185 -0.014505556 0.005467236
0.058373973 -0.014504455 0.0054704547
0.06008476 -0.014503354 0.0054736733
0.061795548 -0.014502274 0.0054768324
0.063473836 -0.014488291 0.0035718083
0.065188318 -0.01448719 0.003575027
0.066890255 -0.014479665 0.0026240349
0.068606593 -0.014478564 0.0026272535
0.070322923 -0.014477463 0.0026304722
0.072046265 -0.014482807 0.003587842
0.073765896 -0.014488144 0.0045451522
0.075478539 -0.014487043 0.0045483708
0.077191174 -0.014485942 0.0045515895
0.078903809 -0.014484861 0.0045547485
0.080616444 -0.01448376 0.0045579672
0.082333177 -0.014476242 0.0036070347
0.084053606 -0.014468677 0.0026561618
0.085769944 -0.014467577 0.0026593804
0.087495923 -0.01446003 0.0017084479
0.089214101 -0.014458929 0.0017116666
0.090932287 -0.014457828 0.0017148852
0.092635281 -0.014463193 0.0026721954
0.094351619 -0.014462092 0.0026754141
-0.094443582 -0.016267179 0.0014366508
-0.092727236 -0.016266078 0.0014398694
-0.091010906 -0.016264997 0.0014430285
-0.089294575 -0.016263897 0.0014462471
-0.087220244 -0.016271859 0.0033602715
-0.085330449 -0.016275283 0.0043188334
-0.083619662 -0.016274182 0.004322052
-0.082082339 -0.016268577 0.0033698678
-0.080369703 -0.016267477 0.0033730865
-0.078826807 -0.016261844 0.0024209023
-0.077112325 -0.016260743 0.0024241209
-0.075397827 -0.016259642 0.0024273396
-0.073683359 -0.016258562 0.0024304986
-0.071806513 -0.016261993 0.0033891201
-0.069933377 -0.016265437 0.0043476224
-0.068063922 -0.016268896 0.0053062439
-0.066198163 -0.016272329 0.0062648654
-0.064646058 -0.016266694 0.0053126812
-0.063090228 -0.016261054 0.0043604374
-0.061530702 -0.016255429 0.0034083128
-0.059967466 -0.016249795 0.0024561286
-0.058105417 -0.016253248 0.0034146905
-0.056392796 -0.016252147 0.0034179091
-0.054680161 -0.016251046 0.0034211278
-0.052825503 -0.01625449 0.0043796301
-0.051254876 -0.016248865 0.0034275055
-0.049680553 -0.01624321 0.0024753809
-0.04796607 -0.016242109 0.0024785995
-0.046520822 -0.016231932 0.00057113171
-0.035195477 -0.016386922 0.034020066
-0.033416659 -0.016390435 0.034978449
-0.031394504 -0.016403046 0.037847459
-0.029505104 -0.016411111 0.039761186
-0.02798257 -0.016405499 0.038808942
-0.026220389 -0.016409012 0.039767325
-0.024578042 -0.016407972 0.039770365
-0.022935681 -0.016406912 0.039773464
-0.021293327 -0.016405873 0.039776504
-0.019540407 -0.016409386 0.040734887
-0.018117338 -0.016399199 0.03882736
-0.016793758 -0.016384477 0.035964608
-0.016089216 -0.016342273 0.027370274
-0.014273211 -0.016192771 -0.0031889081
-0.0061847493 -0.016331291 0.026433647
-0.0044244304 -0.016334811 0.027392089
-0.002667807 -0.016338365 0.028350353
-0.00082649291 -0.016346416 0.03026396
0.0010939464 -0.016359117 0.033132792
0.0030032843 -0.016371816 0.036001623
0.0049843565 -0.016389074 0.039825618
0.0069506243 -0.016406361 0.043649614
0.0087438375 -0.01641446 0.045563161
0.010375097 -0.01641342 0.045566201
0.011855491 -0.016403221 0.043658793
0.013416864 -0.016397567 0.042706668
0.014766753 -0.016378161 0.038888872
0.027294084 -0.016319202 0.028406382
0.029234063 -0.016341114 0.033185422
0.031102322 -0.016358491 0.037009239
0.032801609 -0.016361989 0.037967503
0.034447663 -0.016360948 0.037970543
0.036093716 -0.016359888 0.037973642
0.037739769 -0.016358849 0.037976682
0.039385825 -0.016357789 0.037979782
0.041031878 -0.016356729 0.037982881
0.042637646 -0.016351132 0.037030756
0.044247102 -0.016345456 0.036078691
0.045750495 -0.016325921 0.032261193
0.049914822 -0.016202681 0.0074369907
0.051503286 -0.01618316 0.0036196113
0.053243265 -0.016186686 0.0045778751
0.054979544 -0.016190227 0.0055362582
0.056712128 -0.016193761 0.0064945817
0.058419213 -0.01619266 0.0064978004
0.060126301 -0.016191579 0.0065009594
0.061797194 -0.016181203 0.0045939088
0.063491732 -0.016175495 0.0036420226
0.065204374 -0.016174395 0.0036452413
0.066904463 -0.01616866 0.0026933551
0.068618946 -0.016167579 0.0026965141
0.070333429 -0.016166478 0.0026997328
0.072054915 -0.016170012 0.0036580563
0.073772699 -0.016173558 0.0046162605
0.075483486 -0.016172457 0.0046194792
0.077194273 -0.016171377 0.0046226382
0.078905061 -0.016170276 0.0046258569
0.080615848 -0.016169176 0.0046290755
0.082330734 -0.016163448 0.003677249
0.084049314 -0.016157713 0.0027253628
0.085763797 -0.016156612 0.0027285814
0.087487929 -0.016150856 0.0017767549
0.089204267 -0.016149774 0.0017799139
0.090920597 -0.016148673 0.0017831326
0.092636935 -0.016147573 0.0017863512
0.094353274 -0.016146472 0.0017895699
-0.094255529 -0.017954288 0.0015072227
-0.092541032 -0.017953208 0.0015103817
-0.091009252 -0.017949384 0.00055724382
-0.089112081 -0.017951006 0.001516819
-0.08721859 -0.017952571 0.0024763942
-0.085328795 -0.01795424 0.0034359097
-0.083793305 -0.01795039 0.0024827719
-0.082254134 -0.017946623 0.001529634
-0.080539651 -0.017945522 0.0015328526
-0.078825153 -0.017944442 0.0015360117
-0.077110671 -0.017943341 0.0015392303
-0.075396173 -0.01794224 0.001542449
-0.073681705 -0.01794114 0.0015456676
-0.071804859 -0.017942725 0.0025051832
-0.069931723 -0.017944414 0.0034646392
-0.067903601 -0.017948758 0.0053805709
-0.066196509 -0.017947657 0.0053837895
-0.064644404 -0.017943805 0.0044306517
-0.062935464 -0.017942725 0.0044338107
-0.061377786 -0.017938931 0.0034806728
-0.059816398 -0.01793506 0.0025275946
-0.058103763 -0.017933959 0.0025308132
-0.056391142 -0.017932879 0.0025339723
-0.054678507 -0.017931778 0.0025371909
-0.052823849 -0.017933467 0.0034966469
-0.051253222 -0.017929576 0.0025436282
-0.049678899 -0.017925788 0.0015905499
-0.047964416 -0.017924707 0.001593709
-0.046249926 -0.017923607 0.0015969276
-0.035066664 -0.018012349 0.034122944
-0.033289701 -0.018014079 0.035082281
-0.031392917 -0.018018469 0.036997914
-0.029503524 -0.018022886 0.038913548
-0.027980983 -0.018019084 0.037960351
-0.026218809 -0.018020786 0.038919687
-0.024576463 -0.018019747 0.038922727
-0.022934102 -0.018018687 0.038925827
-0.021291748 -0.018017646 0.038928866
-0.019649394 -0.018016586 0.038931966
-0.018224478 -0.01801005 0.037022531
-0.016899042 -0.018000729 0.034156919
-0.01619263 -0.017974889 0.025553882
-0.01417207 -0.017888995 -0.0031232834
-0.006277062 -0.01796576 0.02461642
-0.0046069697 -0.0179647 0.02461952
-0.0028466433 -0.017966347 0.025578856
-0.0010900274 -0.017968057 0.026538253
0.00092248619 -0.017978054 0.030366123
0.0027508438 -0.017982559 0.032281578
0.0048202723 -0.017995311 0.037065625
0.0068712234 -0.018008109 0.041849613
0.0085871518 -0.018009853 0.042808831
0.010299392 -0.018011604 0.043768108
0.011857063 -0.018007753 0.04281497
0.013418444 -0.018003931 0.041861832
0.014911793 -0.017997332 0.039952576
0.027409557 -0.017958282 0.029459536
0.029235661 -0.017965619 0.032331109
0.031103909 -0.017975695 0.036158741
0.032854587 -0.017980186 0.038074076
0.034498788 -0.017979147 0.038077116
0.036095303 -0.017975312 0.037124097
0.037741356 -0.017974272 0.037127137
0.039387412 -0.017973213 0.037130237
0.040991329 -0.017969375 0.036177218
0.042558651 -0.017962709 0.034268081
0.044210255 -0.01796167 0.034271121
0.0457155 -0.017949412 0.030449867
0.04709658 -0.017925974 0.022804201
0.048605919 -0.017910883 0.018026829
0.049947508 -0.017879022 0.0075129271
0.051475745 -0.017861124 0.0017796159
0.053244915 -0.017865643 0.0036949515
0.054955699 -0.017864563 0.0036981106
0.056690134 -0.017866237 0.0046574473
0.058420863 -0.017867988 0.0056167245
0.060108006 -0.017864035 0.0046638846
0.061798848 -0.01786018 0.0037109256
0.063477144 -0.017853459 0.0018020272
0.065191627 -0.017852359 0.0018052459
0.066906117 -0.017851258 0.0018084645
0.0686206 -0.017850157 0.0018116832
0.070335083 -0.017849056 0.0018149018
0.072056569 -0.017850744 0.0027741194
0.073769204 -0.017849643 0.002777338
0.07548514 -0.017851435 0.003736496
0.077195928 -0.017850334 0.0037397146
0.078906313 -0.017852029 0.0046989918
0.080613002 -0.0178538 0.0056582093
0.082324184 -0.017849846 0.0047053695
0.084033124 -0.017848745 0.0047085881
0.085749857 -0.017844869 0.0037556887
0.087470293 -0.017840896 0.0028029084
0.089194424 -0.017837007 0.0018501282
0.090908907 -0.017835906 0.0018533468
0.092638589 -0.017831981 0.00090050697
0.094354928 -0.01783088 0.00090372562
-0.093881093 -0.019638652 0.0025369525
-0.092170306 -0.019637572 0.0025401115
-0.090459518 -0.019636471 0.0025433302
-0.088748731 -0.01963537 0.0025465488
-0.087037943 -0.01963429 0.0025497079
-0.085327156 -0.019633189 0.0025529265
-0.083791651 -0.019631177 0.001598835
-0.08225248 -0.019629221 0.00064474344
-0.080366395 -0.019628976 0.0016052723
-0.078823499 -0.01962702 0.00065118074
-0.07694111 -0.019626794 0.00161165
-0.075228475 -0.019625694 0.0016148686
-0.073351659 -0.019625524 0.0025753379
-0.071640871 -0.019624444 0.0025784969
-0.069769554 -0.019624254 0.0035390258
-0.067743309 -0.019624941 0.0054568052
-0.06588126 -0.019624764 0.0064172149
-0.064332835 -0.01962276 0.0054631829
-0.062627591 -0.019621659 0.0054664016
-0.06122487 -0.019618791 0.0035549998
-0.05966536 -0.019616779 0.0026009083
-0.057954572 -0.019615699 0.0026040673
-0.056243785 -0.019614598 0.002607286
-0.054389127 -0.019614408 0.0035678148
-0.052680187 -0.019613327 0.0035709739
-0.050971247 -0.019612227 0.0035741925
-0.049400635 -0.019610215 0.002620101
-0.047689863 -0.019609135 0.00262326
-0.045709834 -0.019609848 0.0045410395
-0.034937859 -0.019634183 0.034227729
-0.033037387 -0.019634953 0.03614527
-0.031144291 -0.01963572 0.038062811
-0.029501937 -0.019634681 0.038065851
-0.027859583 -0.019633621 0.03806895
-0.026217222 -0.019632561 0.03807205
-0.024458751 -0.019632502 0.03903228
-0.022818245 -0.019631442 0.03903538
-0.021065325 -0.019631326 0.039995611
-0.01953724 -0.019629361 0.03904146
-0.018222891 -0.019625472 0.036172986
-0.016790576 -0.019622585 0.034261644
-0.016085997 -0.019613026 0.025650144
-0.0061815307 -0.019605692 0.024711609
-0.0046053603 -0.019603714 0.023757577
-0.002845034 -0.01960355 0.024717867
-0.0010884181 -0.019603424 0.025678217
0.00075103343 -0.019604329 0.02759552
0.0025830939 -0.019605117 0.029513001
0.0045733899 -0.019607864 0.033344626
0.0065489039 -0.019610638 0.037176251
0.0082722306 -0.019610522 0.038136482
0.0099918619 -0.019610465 0.039096713
0.011632368 -0.019609423 0.039099753
0.013052128 -0.019605475 0.036231458
0.014626466 -0.019603468 0.035277426
0.017037883 -0.01958886 0.022841036
0.018842191 -0.019589689 0.024758399
0.027809691 -0.019595049 0.035302043
0.029512677 -0.019594954 0.036262214
0.031211961 -0.019594859 0.037222385
0.032907553 -0.019594764 0.038182557
0.034549907 -0.019593725 0.038185596
0.036192261 -0.019592665 0.038188696
0.037788779 -0.019590661 0.037234664
0.039432988 -0.019589599 0.037237763
0.040992919 -0.01958663 0.03532666
0.042560246 -0.019583585 0.033415616
0.044173408 -0.019581558 0.032461643
0.045717102 -0.019577535 0.029593647
0.047132932 -0.019569615 0.022897303
0.048640434 -0.019563586 0.018115222
0.051506586 -0.019544659 0.0018517971
0.053246565 -0.019544592 0.0028119683
0.054957353 -0.019543491 0.002815187
0.056691781 -0.019543383 0.0037754774
0.05842251 -0.019543288 0.0047356486
0.060109653 -0.019541202 0.0037818551
0.061800499 -0.019539129 0.0028279424
0.063478798 -0.019536057 0.00091713667
0.065193281 -0.019534957 0.00092035532
0.066907771 -0.019533856 0.00092357397
0.068632945 -0.019533712 0.0018838048
0.070345588 -0.019532612 0.0018870234
0.072058223 -0.019531529 0.0018901825
0.073770858 -0.019530429 0.0018934011
0.075486787 -0.019530362 0.0028535724
0.077199027 -0.019530276 0.0038138032
0.078907557 -0.019530181 0.0047739744
0.080612399 -0.019530086 0.0057341456
0.082317635 -0.019528985 0.0057373643
0.084022872 -0.019527903 0.0057405233
0.085728109 -0.019526822 0.0057436824
0.08745265 -0.019523731 0.0038329363
0.089173079 -0.019521616 0.0028791428
0.090883866 -0.019520536 0.0028823018
0.092609853 -0.019518381 0.0019286275
0.094339535 -0.019516323 0.00097483397
-0.093506627 -0.021315735 0.0035706162
-0.091614999 -0.021313678 0.0045320988
-0.08990977 -0.021312598 0.0045352578
-0.088385366 -0.021312473 0.003580153
-0.086857297 -0.021312272 0.0026251078
-0.085148357 -0.021311192 0.0026282668
-0.083789997 -0.021311916 0.00071495771
-0.082250826 -0.02131179 -0.00024014711
-0.080364741 -0.021309735 0.00072133541
-0.078482352 -0.021307755 0.0016827583
-0.076771565 -0.021306675 0.0016859174
-0.074894719 -0.021304626 0.0026474595
-0.073185794 -0.021303525 0.0026506782
-0.071476854 -0.021302445 0.0026538372
-0.069607399 -0.021300467 0.0036152601
-0.06774167 -0.02129841 0.0045767426
-0.065879621 -0.021296443 0.0055380464
-0.064331196 -0.02129625 0.0045830607
-0.062472843 -0.021294262 0.0055444241
-0.060920723 -0.021294048 0.004589498
-0.059514292 -0.021294801 0.0026761889
-0.057657786 -0.021292821 0.0036376119
-0.055950709 -0.02129172 0.0036408305
-0.054243617 -0.021290639 0.0036439896
-0.052536525 -0.021289539 0.0036472082
-0.050829433 -0.021288458 0.0036503673
-0.049122341 -0.021287357 0.0036535859
-0.047415264 -0.021286277 0.003656745
-0.045304365 -0.021282505 0.0065345168
-0.041744173 -0.021268886 0.019952416
-0.03954488 -0.02126422 0.023788273
-0.037102267 -0.021257818 0.029540479
-0.034681842 -0.021251414 0.035292685
-0.032910429 -0.021249469 0.036253929
-0.031142704 -0.021247523 0.037215173
-0.02937869 -0.021245604 0.038176417
-0.027857997 -0.021245422 0.037221313
-0.026097685 -0.021243505 0.038182557
-0.024341054 -0.021241551 0.039143741
-0.022588141 -0.021239605 0.040104985
-0.020951338 -0.021238565 0.040108025
-0.019314528 -0.021237504 0.040111125
-0.018003859 -0.021239124 0.03723973
-0.016682118 -0.021240743 0.034368336
-0.015769333 -0.021245753 0.027664483
-0.014727496 -0.02125001 0.021918714
-0.013156876 -0.021249795 0.020963788
-0.008735463 -0.021238044 0.031509399
-0.0070820078 -0.021236984 0.031512499
-0.0055224672 -0.021236839 0.030557454
-0.003959246 -0.021236636 0.029602408
-0.0023923069 -0.021236422 0.028647482
-0.00064494461 -0.021234516 0.029608607
0.0010987371 -0.021232598 0.030569851
0.0027540401 -0.021231558 0.030572891
0.0045749843 -0.021228718 0.03249222
0.0063885301 -0.021225983 0.03441149
0.0080364347 -0.021224923 0.034414589
0.0096843392 -0.021223882 0.034417629
0.011256814 -0.021223688 0.033462644
0.012685843 -0.021225197 0.030591488
0.014341146 -0.021224137 0.030594587
0.015926562 -0.021223916 0.029639602
0.01758372 -0.021222856 0.029642701
0.019240867 -0.021221796 0.029645801
0.02096235 -0.021219919 0.030606925
0.022680134 -0.021217965 0.03156811
0.024272956 -0.021217797 0.030613124
0.026045814 -0.021214999 0.032532334
0.027868211 -0.021211438 0.03540957
0.029624425 -0.021208666 0.03732878
0.031373248 -0.021205915 0.03924793
0.033011906 -0.021204876 0.03925097
0.034700096 -0.02120297 0.040212095
0.036289219 -0.021202777 0.039257109
0.037882034 -0.021202611 0.038302124
0.039478559 -0.021202387 0.037347138
0.041036643 -0.021203019 0.035434186
0.042602126 -0.021203648 0.033521235
0.044213444 -0.021203378 0.032566309
0.045755289 -0.021204855 0.029695332
0.047169283 -0.021209616 0.022992373
0.048674941 -0.021212714 0.018205464
0.050012872 -0.021220747 0.0076706409
0.051566616 -0.021223776 0.0028838515
0.053302892 -0.021221878 0.003845036
0.055009983 -0.021220777 0.0038482547
0.056717068 -0.021219697 0.0038514137
0.058424156 -0.021218596 0.0038546324
0.060131244 -0.021217516 0.0038577914
0.061820239 -0.021217212 0.0029030442
0.063512936 -0.021216977 0.0019481778
0.065209329 -0.021216651 0.00099349022
0.066921964 -0.021215571 0.00099664927
0.068645291 -0.021213694 0.0019577742
0.070356078 -0.021212593 0.0019609928
0.072066866 -0.021211512 0.0019641519
0.073782802 -0.021209566 0.002925396
0.075491734 -0.021208486 0.002928555
0.077202119 -0.021206589 0.0038897395
0.078908801 -0.021204654 0.0048508644
0.080611788 -0.021202769 0.0058119297
0.082311071 -0.021200901 0.0067731142
0.084012613 -0.021199821 0.0067762733
0.085721955 -0.021199508 0.0058214664
0.087434992 -0.021199211 0.0048667789
0.089151733 -0.021198964 0.0039120317
0.090858817 -0.021197863 0.0039152503
0.092581108 -0.021197559 0.0029605031
0.094290048 -0.021196458 0.0029637218
-0.093504988 -0.022991063 0.0026895404
-0.091797896 -0.022989962 0.002692759
-0.08990813 -0.022986095 0.0036551952
-0.088383727 -0.022987781 0.0026991367
-0.086855642 -0.022989439 0.0017430782
-0.085146703 -0.022988338 0.0017462969
-0.083788343 -0.022992676 -0.00016897917
-0.082249172 -0.022994339 -0.0011249781
-0.080363087 -0.022990474 -0.00016254187
-0.078480698 -0.022986704 0.00079977512
-0.076769911 -0.022985604 0.00080299377
-0.074893065 -0.022981793 0.00176543
-0.07318414 -0.022980692 0.0017686486
-0.0714752 -0.022979591 0.0017718673
-0.06960576 -0.022975774 0.0027342439
-0.067898668 -0.022974694 0.0027374029
-0.066191576 -0.022973593 0.0027406216
-0.064329557 -0.022969747 0.0037029982
-0.062624313 -0.022968667 0.0037061572
-0.060919084 -0.022967566 0.0037093759
-0.059363224 -0.022969229 0.002753377
-0.057656147 -0.022968149 0.002756536
-0.05594907 -0.022967048 0.0027597547
-0.054241978 -0.022965947 0.0027629733
-0.052534886 -0.022964867 0.0027661324
-0.050827794 -0.022963766 0.002769351
-0.049120702 -0.022962686 0.0027725101
-0.047413625 -0.022961585 0.0027757287
-0.045168094 -0.022949664 0.0066155195
-0.042140827 -0.022921454 0.016210139
-0.039805092 -0.022906858 0.021008968
-0.037100665 -0.02288413 0.028685212
-0.034807466 -0.022869555 0.033483982
-0.032908842 -0.022863053 0.035405338
-0.031141125 -0.022859344 0.036367476
-0.029377103 -0.022855597 0.037329733
-0.027856417 -0.022857225 0.036373675
-0.026096098 -0.022853516 0.037335813
-0.024339475 -0.022849731 0.038298011
-0.022586562 -0.022845976 0.039260209
-0.020949759 -0.022844935 0.039263248
-0.019312948 -0.022843895 0.039266288
-0.018002279 -0.022850925 0.036392093
-0.016680531 -0.022857975 0.033517838
-0.015767731 -0.022875736 0.026807249
-0.014622711 -0.022888139 0.022014916
-0.013053946 -0.022889754 0.021058977
-0.0086362436 -0.022858061 0.031615078
-0.0069846436 -0.022857001 0.031618178
-0.0052391291 -0.022853293 0.032580316
-0.0035893694 -0.022852233 0.032583416
-0.0019396171 -0.022851173 0.032586515
-0.00028986484 -0.022850113 0.032589614
0.0013598874 -0.022849072 0.032592654
0.0030096471 -0.022848012 0.032595754
0.0048250407 -0.022841573 0.034516931
0.0065520778 -0.022837836 0.035479069
0.008196272 -0.022836776 0.035482168
0.0097632036 -0.022838412 0.034526169
0.011333831 -0.022840057 0.03357023
0.012834586 -0.02284432 0.031655252
0.014414467 -0.022845909 0.030699313
0.016137794 -0.022842221 0.031661391
0.017857421 -0.022838512 0.032623529
0.019441001 -0.022840101 0.03166759
0.021156926 -0.022836413 0.032629669
0.022869159 -0.022832677 0.033591807
0.024456434 -0.022834294 0.032635868
0.026164968 -0.022830578 0.033597946
0.027926728 -0.022824157 0.035519063
0.029681087 -0.022817841 0.037440121
0.031374827 -0.022814097 0.0384022
0.033013485 -0.022813058 0.03840524
0.034652144 -0.022812018 0.038408279
0.036290798 -0.022810958 0.038411379
0.037837788 -0.022815229 0.03649646
0.039436162 -0.022816818 0.035540521
0.040996101 -0.022821097 0.033625662
0.042563435 -0.022825321 0.031710804
0.044176601 -0.02282689 0.030754924
0.045720302 -0.022833804 0.027881145
0.047136158 -0.022851286 0.021171451
0.048676558 -0.02286078 0.017338753
0.049983472 -0.022891439 0.0058344603
0.051539078 -0.022903571 0.0010428429
0.053304538 -0.022897206 0.0029639602
0.05501163 -0.022896105 0.0029671788
0.056718715 -0.022895005 0.0029703975
0.058404014 -0.02289656 0.002014637
0.060112949 -0.02289548 0.002017796
0.061803799 -0.022897005 0.0010620356
0.063498348 -0.022898512 0.00010633469
0.06522537 -0.022894824 0.0010684133
0.066936158 -0.022893723 0.0010716319
0.068646945 -0.022892622 0.0010748506
0.070357732 -0.022891542 0.0010780096
0.072075509 -0.022887813 0.0020402074
0.073784448 -0.022886733 0.0020433664
0.075493388 -0.022885632 0.0020465851
0.077203766 -0.022881916 0.0030086637
0.078910448 -0.022878172 0.0039707422
0.080613434 -0.022874476 0.0049327612
0.082312718 -0.02287077 0.0058948994
0.084014252 -0.022869669 0.005898118
0.085723594 -0.022871194 0.0049423575
0.087436639 -0.022872709 0.0039867163
0.089153379 -0.022874271 0.0030310154
0.090860464 -0.022873191 0.0030341744
0.092582755 -0.022874705 0.0020785332
0.094291694 -0.022873625 0.0020816922
-0.09331695 -0.024661794 0.0027686954
-0.091611706 -0.024660693 0.002771914
-0.089723773 -0.024655066 0.0037352443
-0.088201232 -0.024658533 0.0027782321
-0.086674981 -0.024661981 0.0018212795
-0.084967889 -0.0246609 0.0018244386
-0.083436094 -0.024664346 0.000867486
-0.081727169 -0.024663266 0.00087064505
-0.079846628 -0.024657618 0.0018340349
-0.078139536 -0.024656538 0.001837194
-0.076432459 -0.024655437 0.0018404126
-0.074725367 -0.024654336 0.0018436313
-0.073182486 -0.024657803 0.00088661909
-0.071473546 -0.024656702 0.00088983774
-0.069604106 -0.024651073 0.001853168
-0.068055667 -0.024654521 0.00089621544
-0.066189922 -0.024648892 0.0018595457
-0.064327903 -0.024643265 0.002822876
-0.062469549 -0.024637656 0.0037861466
-0.060766168 -0.024636555 0.0037893653
-0.059212185 -0.024639983 0.0028324723
-0.057506941 -0.024638902 0.0028356314
-0.055801712 -0.024637802 0.00283885
-0.054096468 -0.024636721 0.0028420091
-0.052391239 -0.02463562 0.0028452277
-0.050685994 -0.024634538 0.0028483868
-0.04898075 -0.024633437 0.0028516054
-0.047275521 -0.024632357 0.0028547645
-0.04503186 -0.024613168 0.00669837
-0.042271972 -0.024575887 0.014382362
-0.039934382 -0.024552211 0.01918596
-0.037099071 -0.024510466 0.027829885
-0.034805872 -0.024486788 0.032633483
-0.033032618 -0.024481166 0.033596635
-0.031016029 -0.024466619 0.03647995
-0.02925387 -0.024460997 0.037443101
-0.027615212 -0.024459956 0.037446141
-0.025976561 -0.024458896 0.037449241
-0.024221785 -0.024453349 0.038412333
-0.02247072 -0.024447784 0.039375484
-0.020835765 -0.024446743 0.039378524
-0.019200809 -0.024445683 0.039381623
-0.017891981 -0.02445822 0.036504507
-0.016465209 -0.024466138 0.034587443
-0.014926016 -0.024469586 0.03363049
-0.013589464 -0.024482047 0.030753434
-0.011735231 -0.024472049 0.032676578
-0.0081465691 -0.024456421 0.035562813
-0.0064084455 -0.024450881 0.036525965
-0.0045801103 -0.024440773 0.038449109
-0.0029432997 -0.024439732 0.038452148
-0.0013064891 -0.024438692 0.038455188
0.00033030659 -0.024437632 0.038458288
0.001880601 -0.024441101 0.037501276
0.0036039203 -0.024435554 0.038464367
0.0052407309 -0.024434494 0.038467467
0.0068775415 -0.024433453 0.038470507
0.0085143447 -0.024432413 0.038473547
0.010073878 -0.024435861 0.037516594
0.011637114 -0.024439344 0.036559701
0.013204046 -0.024442762 0.035602748
0.014846407 -0.024441702 0.035605848
0.016558629 -0.024436204 0.03656888
0.018267162 -0.024430621 0.037531912
0.019905817 -0.024429562 0.037535012
0.021544471 -0.024428522 0.037538052
0.023120649 -0.024432003 0.036581159
0.024821784 -0.024426421 0.037544191
0.026460443 -0.024425382 0.037547231
0.028099097 -0.024424322 0.03755033
0.02979283 -0.024418795 0.038513362
0.031429633 -0.024417756 0.038516402
0.033066444 -0.024416717 0.038519442
0.034703251 -0.024415657 0.038522542
0.036292378 -0.024419082 0.037565649
0.0378852 -0.024422565 0.036608756
0.039481729 -0.024425965 0.035651863
0.041081954 -0.024429342 0.034695029
0.042645596 -0.024437271 0.032778263
0.044255059 -0.024440698 0.03182137
0.04575849 -0.024457483 0.027984798
0.047276702 -0.024474267 0.024148226
0.048875488 -0.024482062 0.022231519
0.0515991 -0.024573587 0.0020797253
0.053333521 -0.02456804 0.0030428171
0.055038758 -0.024566939 0.0030460358
0.056744002 -0.024565859 0.0030491948
0.058427453 -0.024569204 0.0020925403
0.060134538 -0.024568124 0.0020956993
0.061823539 -0.02457149 0.0011389852
0.063548714 -0.024565943 0.002102077
0.065255798 -0.024564842 0.0021052957
0.066962883 -0.024563761 0.0021084547
0.068680666 -0.024558214 0.0030715466
0.070385903 -0.024557134 0.0030747056
0.07209114 -0.024556033 0.0030779243
0.073796377 -0.024554953 0.0030810833
0.075501621 -0.024553852 0.0030843019
0.077208295 -0.024548346 0.0040472746
0.078911684 -0.024547264 0.0040504336
0.080615073 -0.024546163 0.0040536523
0.082314357 -0.024540618 0.0050167441
0.084015898 -0.024539538 0.0050199032
0.085717432 -0.024538456 0.0050230622
0.087428629 -0.024541821 0.0040663481
0.089155026 -0.024549572 0.0021499395
0.09086211 -0.024548471 0.0021531582
0.092569202 -0.024547391 0.0021563172
0.094259232 -0.024541864 0.0031193495
-0.093128912 -0.026328927 0.0028496981
-0.091425516 -0.026327847 0.0028528571
-0.089722134 -0.026326746 0.0028560758
-0.088018753 -0.026325665 0.0028592348
-0.086315356 -0.026324565 0.0028624535
-0.08461196 -0.026323484 0.0028656125
-0.082733281 -0.026316032 0.0038300157
-0.081031762 -0.026314951 0.0038331747
-0.079330213 -0.026313871 0.0038363338
-0.077798419 -0.02631912 0.0028783679
-0.076262929 -0.026324378 0.0019204617
-0.074557684 -0.026323278 0.0019236803
-0.073016651 -0.026328564 0.00096577406
-0.071309559 -0.026327481 0.00096893311
-0.069602467 -0.026326381 0.00097215176
-0.067895375 -0.0263253 0.0009753108
-0.066031493 -0.026317835 0.0019395947
-0.064171307 -0.026310416 0.0029038191
-0.062314831 -0.026302984 0.0038681626
-0.060613282 -0.026301883 0.0038713813
-0.058911733 -0.026300803 0.0038745403
-0.057210214 -0.026299722 0.0038776994
-0.055508666 -0.026298622 0.003880918
-0.053950973 -0.026303872 0.0029229522
-0.052247576 -0.026302792 0.0029261112
-0.050684355 -0.026308008 0.0019683242
-0.048840813 -0.026300611 0.0029324889
-0.047000982 -0.0262932 0.0038967729
-0.044895619 -0.02627307 0.0067830682
-0.042403102 -0.026233962 0.012552619
-0.040063672 -0.026201185 0.017361045
-0.037226528 -0.026143096 0.026013613
-0.034804285 -0.026104014 0.031782925
-0.032905668 -0.026090272 0.033708096
-0.030890942 -0.026070237 0.036594272
-0.02913063 -0.026062833 0.037558377
-0.02749382 -0.026061773 0.037561476
-0.025739059 -0.026054444 0.038525522
-0.023987986 -0.026047094 0.039489627
-0.022354878 -0.026046054 0.039492667
-0.020721778 -0.026045015 0.039495707
-0.01919923 -0.026050244 0.0385378
-0.017672986 -0.026055494 0.037579834
-0.016143039 -0.026060799 0.036621869
-0.014609389 -0.026066106 0.035663903
-0.012968883 -0.026065046 0.035667002
-0.011328377 -0.026064005 0.035670042
-0.0094889477 -0.026050275 0.037595093
-0.0075592995 -0.026030283 0.04048115
-0.0059280396 -0.026029242 0.04048419
-0.0042028651 -0.026021885 0.041448236
-0.0025734529 -0.026020845 0.041451275
-0.0010342672 -0.026026124 0.040493309
0.00059699267 -0.026025064 0.040496409
0.0022282526 -0.026024025 0.040499449
0.0038595051 -0.026022984 0.040502489
0.005490765 -0.026021944 0.040505528
0.0071220249 -0.026020905 0.040508568
0.0087532848 -0.026019845 0.040511668
0.010307275 -0.026025178 0.039553702
0.011864953 -0.026030388 0.038595855
0.013499916 -0.026029348 0.038598895
0.015206598 -0.026022039 0.039562881
0.016839698 -0.026021 0.039565921
0.018540829 -0.026013607 0.040529907
0.020172086 -0.026012547 0.040533006
0.021739025 -0.02601786 0.0395751
0.023372129 -0.02601682 0.03957814
0.025005236 -0.02601576 0.039581239
0.026579574 -0.026020991 0.038623333
0.028214529 -0.026019949 0.038626373
0.029849485 -0.02601889 0.038629472
0.03148444 -0.02601785 0.038632512
0.033119403 -0.026016811 0.038635552
0.034754358 -0.026015751 0.038638651
0.036341634 -0.026020959 0.037680805
0.037932616 -0.026026225 0.036722958
0.03957127 -0.026025185 0.036725998
0.041167796 -0.026030431 0.035768211
0.042727742 -0.026041916 0.033849478
0.044371948 -0.026040856 0.033852577
0.045869824 -0.02606493 0.030012131
0.047313042 -0.026101567 0.024249971
0.048811331 -0.026131876 0.019448757
0.05026605 -0.02617472 0.01272583
0.051629931 -0.02624261 0.0021595359
0.053389836 -0.026229003 0.0040844679
0.055065889 -0.026234172 0.0031267405
0.056769278 -0.026233092 0.0031298995
0.058494452 -0.026225742 0.0040940046
0.060176056 -0.026230911 0.0031362772
0.061897531 -0.026223561 0.0041003823
0.063599072 -0.02622248 0.0041035414
0.065300606 -0.0262214 0.0041067004
0.067014687 -0.026214043 0.0050707459
0.068714373 -0.026212962 0.005073905
0.070414066 -0.026211882 0.005077064
0.072113752 -0.026210781 0.0050802827
0.073813446 -0.026209701 0.0050834417
0.075513132 -0.026208621 0.0050866008
0.07721138 -0.026213776 0.0041289926
0.078912921 -0.026212696 0.0041321516
0.080614462 -0.026211595 0.0041353703
0.082315996 -0.026210515 0.0041385293
0.084017538 -0.026209414 0.004141748
0.085719079 -0.026208334 0.004144907
0.087430269 -0.02621348 0.0031872392
0.089145169 -0.026218615 0.0022296906
0.090850405 -0.026217535 0.0022328496
0.092555642 -0.026216434 0.0022360682
0.09422677 -0.026202889 0.0041608214
-0.093127273 -0.028000606 0.0019705296
-0.091608413 -0.028007673 0.0010116696
-0.089903183 -0.028006572 0.0010148883
-0.088017114 -0.027997324 0.0019801259
-0.086313717 -0.027996244 0.001983285
-0.084433191 -0.027986981 0.0029486418
-0.082731642 -0.027985901 0.0029518008
-0.081030123 -0.0279848 0.0029550195
-0.079328574 -0.027983719 0.0029581785
-0.07762704 -0.027982639 0.0029613376
-0.076261275 -0.027997848 0.0010403991
-0.07455603 -0.027996767 0.0010435581
-0.073014997 -0.02800389 8.46982e-05
-0.071307905 -0.02800281 8.7857246e-05
-0.069600813 -0.028001709 9.1075897e-05
-0.067893721 -0.028000629 9.4234943e-05
-0.066029839 -0.027991325 0.0010594726
-0.064169668 -0.027982075 0.0020247102
-0.062313192 -0.027972834 0.0029900074
-0.060611643 -0.027971752 0.0029931664
-0.058910094 -0.027970672 0.0029963255
-0.057208575 -0.027969571 0.0029995441
-0.055507027 -0.02796849 0.0030027032
-0.053949334 -0.027975552 0.0020437837
-0.052387945 -0.027982598 0.0010849833
-0.050682701 -0.027981497 0.001088202
-0.048839174 -0.02797229 0.0020533204
-0.047135778 -0.027971189 0.0020565391
-0.045028582 -0.027945643 0.0049458146
-0.042534232 -0.027895657 0.010720968
-0.040192962 -0.0278538 0.015534163
-0.037353978 -0.027779333 0.024195313
-0.034929901 -0.027729403 0.029970467
