# .PCD v0.7 - Point Cloud Data file format
VERSION 0.7
FIELDS x y z
SIZE 4 4 4
TYPE F F F
COUNT 1 1 1
WIDTH 1336
HEIGHT 1
VIEWPOINT 0 0 0 1 0 0 0
POINTS 1336
DATA ascii
0.085500002 0.047725309 0.0023584962
0.087399997 0.047725309 0.0014430285
0.089299999 0.047725309 0.00052756071
0.091200002 0.047725309 0.001453042
0.093099996 0.047725309 0.001453042
-0.094999999 0.049371012 0.0056965947
-0.093099996 0.049371012 0.0056965947
-0.091200002 0.049371012 0.0056999326
-0.089299999 0.049371012 0.0029520392
-0.087399997 0.049371012 0.0029553771
-0.085500002 0.049371012 0.0038768649
-0.0836 0.049371012 0.0038801432
-0.081699997 0.049371012 0.003883481
-0.079800002 0.049371012 0.0038868189
-0.0779 0.049371012 0.0038901567
-0.075999998 0.049371012 0.0038934946
-0.074100003 0.049371012 0.0048149824
-0.0722 0.049371012 0.0039001703
-0.070299998 0.049371012 0.0029854178
-0.068399996 0.049371012 0.0039067864
-0.066500001 0.049371012 0.0039101243
-0.064599998 0.049371012 0.0048316121
-0.062699996 0.049371012 0.0057530999
-0.060800001 0.049371012 0.0057564378
-0.058899999 0.049371012 0.003926754
-0.057 0.049371012 0.0039300919
-0.055099998 0.049371012 0.0048515201
-0.053199999 0.049371012 0.0048548579
-0.0513 0.049371012 0.0039401054
-0.049399998 0.049371012 0.0030254126
-0.047499999 0.049371012 0.0030286908
-0.045600001 0.049371012 0.0039500594
-0.043699998 0.049371012 0.0048714876
-0.0418 0.049371012 0.0057929754
-0.039900001 0.049371012 0.0048781633
-0.037999999 0.049371012 0.0030453801
-0.0361 0.049371012 0.0021380186
-0.034199998 0.049371012 0.0021413565
-0.032299999 0.049371012 0.0030587316
-0.030400001 0.049371012 0.0030620694
-0.0285 0.049371012 0.0030654073
-0.0266 0.049371012 0.0021506548
-0.024699999 0.049371012 0.0030720234
-0.0228 0.049371012 0.003993392
-0.0209 0.049371012 0.0058328509
-0.018999999 0.049371012 0.0058361888
-0.017099999 0.049371012 0.004003346
-0.0152 0.049371012 0.002170682
-0.0133 0.049371012 0.0021740198
-0.0114 0.049371012 0.0021773577
-0.0094999997 0.049371012 0.0030987263
-0.0076000001 0.049371012 0.0040199757
-0.0057000001 0.049371012 0.0049446821
-0.0038000001 0.049371012 0.0058660507
-0.0019 0.049371012 0.0058693886
0 0.049371012 0.0058727264
0.0019 0.049371012 0.0040400028
0.0038000001 0.049371012 0.0031253695
0.0057000001 0.049371012 0.0022107363
0.0076000001 0.049371012 0.0022140741
0.0094999997 0.049371012 0.0012993813
0.0114 0.049371012 0.0013077259
0.0133 0.049371012 0.0013111234
0.0152 0.049371012 0.0013093948
0.017099999 0.049371012 0.0013127327
0.018999999 0.049371012 0.0013244748
0.0209 0.049371012 0.0031586885
0.0228 0.049371012 0.0040799379
0.024699999 0.049371012 0.0050012469
0.0266 0.049371012 0.0050045252
0.0285 0.049371012 0.005007863
0.030400001 0.049371012 0.0050112009
0.032299999 0.049371012 0.0050145388
0.034199998 0.049371012 0.0050178766
0.0361 0.049371012 0.0050211549
0.037999999 0.049371012 0.0059425235
0.039900001 0.049371012 0.0059458017
0.0418 0.049371012 0.0059491396
0.043699998 0.049371012 0.0077882409
0.045600001 0.049371012 0.0087094903
0.047499999 0.049371012 0.0087127686
0.049399998 0.049371012 0.006880343
0.0513 0.049371012 0.002297461
0.053199999 0.049371012 0.0023007989
0.055099998 0.049371012 0.0023041368
0.057 0.049371012 0.0023074746
0.058899999 0.049371012 0.0023108125
0.060800001 0.049371012 0.0032320023
0.062699996 0.049371012 0.0032353401
0.064599998 0.049371012 0.003238678
0.066500001 0.049371012 0.0023241639
0.068399996 0.049371012 0.0023275018
0.070299998 0.049371012 0.0023308396
0.0722 0.049371012 0.0032520294
0.074100003 0.049371012 0.0041731596
0.075999998 0.049371012 0.0041764975
0.0779 0.049371012 0.0041798353
0.079800002 0.049371012 0.0041864514
0.081699997 0.049371012 0.0041897893
0.0836 0.049371012 0.0032753348
0.085500002 0.049371012 0.0023608804
0.087399997 0.049371012 0.0023641586
0.089299999 0.049371012 0.0023674965
0.091200002 0.049371012 0.001453042
0.093099996 0.049371012 0.0023741722
-0.094999999 0.051016711 0.0056966543
-0.093099996 0.051016711 0.0056966543
-0.091200002 0.051016711 0.0056999922
-0.089299999 0.051016711 0.0038722754
-0.087399997 0.051016711 0.0038756132
-0.085500002 0.051016711 0.0038788915
-0.0836 0.051016711 0.0038822293
-0.081699997 0.051016711 0.0029683709
-0.079800002 0.051016711 0.003888905
-0.0779 0.051016711 0.0038922429
-0.075999998 0.051016711 0.0038955808
-0.074100003 0.051016711 0.0048160553
-0.0722 0.051016711 0.0039022565
-0.070299998 0.051016711 0.0029883981
-0.068399996 0.051016711 0.0029917359
-0.066500001 0.051016711 0.0039156079
-0.064599998 0.051016711 0.0039188862
-0.062699996 0.051016711 0.0030050874
-0.060800001 0.051016711 0.0030084252
-0.058899999 0.051016711 0.0039288998
-0.057 0.051016711 0.0048493743
-0.055099998 0.051016711 0.0048526525
-0.053199999 0.051016711 0.0048559904
-0.0513 0.051016711 0.0039422512
-0.049399998 0.051016711 0.0030284524
-0.047499999 0.051016711 0.0030317903
-0.045600001 0.051016711 0.0030351281
-0.043699998 0.051016711 0.0048726797
-0.0418 0.051016711 0.0067102909
-0.039900001 0.051016711 0.0048792958
-0.037999999 0.051016711 0.0021346807
-0.0361 0.051016711 0.0021380186
-0.034199998 0.051016711 0.0021413565
-0.032299999 0.051016711 0.0030617714
-0.030400001 0.051016711 0.0030651093
-0.0285 0.051016711 0.0030684471
-0.0266 0.051016711 0.003071785
-0.024699999 0.051016711 0.0030751228
-0.0228 0.051016711 0.0039955974
-0.0209 0.051016711 0.0049159527
-0.018999999 0.051016711 0.0049192905
-0.017099999 0.051016711 0.0040055513
-0.0152 0.051016711 0.0021747351
-0.0133 0.051016711 0.0012609363
-0.0114 0.051016711 0.0021814108
-0.0094999997 0.051016711 0.0031018257
-0.0076000001 0.051016711 0.0031085014
-0.0057000001 0.051016711 0.0040289164
-0.0038000001 0.051016711 0.0049492121
-0.0019 0.051016711 0.0049525499
0 0.051016711 0.0049558878
0.0019 0.051016711 0.0040422082
0.0038000001 0.051016711 0.0031285286
0.0057000001 0.051016711 0.002214849
0.0076000001 0.051016711 0.0022181869
0.0094999997 0.051016711 0.0022215247
0.0114 0.051016711 0.0013077259
0.0133 0.051016711 0.0013111234
0.0152 0.051016711 0.0013144612
0.017099999 0.051016711 0.0013177991
0.018999999 0.051016711 0.0013244748
0.0209 0.051016711 0.0022448897
0.0228 0.051016711 0.0031652451
0.024699999 0.051016711 0.0031685829
0.0266 0.051016711 0.0040888786
0.0285 0.051016711 0.0040922165
0.030400001 0.051016711 0.0031785369
0.032299999 0.051016711 0.0040988922
0.034199998 0.051016711 0.0050191283
0.0361 0.051016711 0.0050224662
0.037999999 0.051016711 0.005025804
0.039900001 0.051016711 0.0041122437
0.0418 0.051016711 0.0041155815
0.043699998 0.051016711 0.0059527755
0.045600001 0.051016711 0.0077900887
0.047499999 0.051016711 0.0077933669
0.049399998 0.051016711 0.0077967048
0.0513 0.051016711 0.0059660673
0.053199999 0.051016711 0.0023049712
0.055099998 0.051016711 0.0023083091
0.057 0.051016711 0.0023116469
0.058899999 0.051016711 0.0013980269
0.060800001 0.051016711 0.0023183227
0.062699996 0.051016711 0.0023217201
0.064599998 0.051016711 0.002325058
0.066500001 0.051016711 0.0023283958
0.068399996 0.051016711 0.0023317337
0.070299998 0.051016711 0.0023350716
0.0722 0.051016711 0.0032553077
0.074100003 0.051016711 0.0032586455
0.075999998 0.051016711 0.0032619834
0.0779 0.051016711 0.0032653213
0.079800002 0.051016711 0.003271997
0.081699997 0.051016711 0.0032753348
0.0836 0.051016711 0.0032786727
0.085500002 0.051016711 0.0032820106
0.087399997 0.051016711 0.0032853484
0.089299999 0.051016711 0.0032886863
0.091200002 0.051016711 0.0023751259
0.093099996 0.051016711 0.0023784637
-0.094999999 0.05266241 0.0075312853
-0.093099996 0.05266241 0.0075312853
-0.091200002 0.05266241 0.0075346231
-0.089299999 0.05266241 0.0047924519
-0.087399997 0.05266241 0.0047957897
-0.085500002 0.05266241 0.0047991276
-0.0836 0.05266241 0.0048024654
-0.081699997 0.05266241 0.0038895011
-0.079800002 0.05266241 0.0048090816
-0.0779 0.05266241 0.0048124194
-0.075999998 0.05266241 0.0048157573
-0.074100003 0.05266241 0.0057352781
-0.0722 0.05266241 0.004822433
-0.070299998 0.05266241 0.0039095283
-0.068399996 0.05266241 0.0039128661
-0.066500001 0.05266241 0.0039195418
-0.064599998 0.05266241 0.0039228797
-0.062699996 0.05266241 0.0039262176
-0.060800001 0.05266241 0.0039295554
-0.058899999 0.05266241 0.0048491359
-0.057 0.05266241 0.0057685971
-0.055099998 0.05266241 0.005771935
-0.053199999 0.05266241 0.0057752728
-0.0513 0.05266241 0.0039462447
-0.049399998 0.05266241 0.0030333996
-0.047499999 0.05266241 0.0039529204
-0.045600001 0.05266241 0.0039562583
-0.043699998 0.05266241 0.0048757792
-0.0418 0.05266241 0.0067114234
-0.039900001 0.05266241 0.0057985187
-0.037999999 0.05266241 0.0039729476
-0.0361 0.05266241 0.0030601025
-0.034199998 0.05266241 0.0030634403
-0.032299999 0.05266241 0.0039829612
-0.030400001 0.05266241 0.0049024224
-0.0285 0.05266241 0.0039896369
-0.0266 0.05266241 0.0039929748
-0.024699999 0.05266241 0.0039963126
-0.0228 0.05266241 0.0058318377
-0.0209 0.05266241 0.0058351755
-0.018999999 0.05266241 0.0067546368
-0.017099999 0.05266241 0.0049257874
-0.0152 0.05266241 0.0030968189
-0.0133 0.05266241 0.0031001568
-0.0114 0.05266241 0.0031035542
-0.0094999997 0.05266241 0.0040229559
-0.0076000001 0.05266241 0.004945755
-0.0057000001 0.05266241 0.0058651567
-0.0038000001 0.05266241 0.0067845583
-0.0019 0.05266241 0.0067878962
0 0.05266241 0.0058751106
0.0019 0.05266241 0.0058784485
0.0038000001 0.05266241 0.0049657822
0.0057000001 0.05266241 0.0040529966
0.0076000001 0.05266241 0.0031402707
0.0094999997 0.05266241 0.0031436086
0.0114 0.05266241 0.002230823
0.0133 0.05266241 0.0022341609
0.0152 0.05266241 0.0022374988
0.017099999 0.05266241 0.0022408366
0.018999999 0.05266241 0.0031636357
0.0209 0.05266241 0.0031669736
0.0228 0.05266241 0.0031703115
0.024699999 0.05266241 0.0031736493
0.0266 0.05266241 0.004093051
0.0285 0.05266241 0.0040963888
0.030400001 0.05266241 0.0040997267
0.032299999 0.05266241 0.0050190687
0.034199998 0.05266241 0.0059384108
0.0361 0.05266241 0.005941689
0.037999999 0.05266241 0.0050290823
0.039900001 0.05266241 0.004116416
0.0418 0.05266241 0.0041197538
0.043699998 0.05266241 0.0059550405
0.045600001 0.05266241 0.0077904463
0.047499999 0.05266241 0.0087097883
0.049399998 0.05266241 0.0087130666
0.0513 0.05266241 0.0050557256
0.053199999 0.05266241 0.0041430593
0.055099998 0.05266241 0.0032304525
0.057 0.05266241 0.0032337904
0.058899999 0.05266241 0.0023210645
0.060800001 0.05266241 0.0023244023
0.062699996 0.05266241 0.003243804
0.064599998 0.05266241 0.0032471418
0.066500001 0.05266241 0.0032504797
0.068399996 0.05266241 0.0041697621
0.070299998 0.05266241 0.0041731
0.0722 0.05266241 0.0041764379
0.074100003 0.05266241 0.0041797757
0.075999998 0.05266241 0.003267169
0.0779 0.05266241 0.0041864514
0.079800002 0.05266241 0.0051090717
0.081699997 0.05266241 0.0051124096
0.0836 0.05266241 0.0041998029
0.085500002 0.05266241 0.0042031407
0.087399997 0.05266241 0.0042064786
0.089299999 0.05266241 0.0042098165
0.091200002 0.05266241 0.0032972097
0.093099996 0.05266241 0.0033005476
-0.094999999 0.054308113 0.0066179037
-0.093099996 0.054308113 0.0066179037
-0.091200002 0.054308113 0.0066245794
-0.089299999 0.054308113 0.0047973394
-0.087399997 0.054308113 0.0048006773
-0.085500002 0.054308113 0.0038886666
-0.0836 0.054308113 0.0038920045
-0.081699997 0.054308113 0.0038953424
-0.079800002 0.054308113 0.0038986802
-0.0779 0.054308113 0.0039020181
-0.075999998 0.054308113 0.0039054155
-0.074100003 0.054308113 0.0039087534
-0.0722 0.054308113 0.0039120913
-0.070299998 0.054308113 0.0030034184
-0.068399996 0.054308113 0.0030067563
-0.066500001 0.054308113 0.0020948648
-0.064599998 0.054308113 0.0020982623
-0.062699996 0.054308113 0.0021016002
-0.060800001 0.054308113 0.0030201077
-0.058899999 0.054308113 0.0039387941
-0.057 0.054308113 0.0048573613
-0.055099998 0.054308113 0.0048606992
-0.053199999 0.054308113 0.004864037
-0.0513 0.054308113 0.0030368567
-0.049399998 0.054308113 0.0021250248
-0.047499999 0.054308113 0.0021283627
-0.045600001 0.054308113 0.0030468702
-0.043699998 0.054308113 0.0048807263
-0.0418 0.054308113 0.0057992935
-0.039900001 0.054308113 0.0048874021
-0.037999999 0.054308113 0.0039788485
-0.0361 0.054308113 0.0039821863
-0.034199998 0.054308113 0.0049007535
-0.032299999 0.054308113 0.0058192611
-0.030400001 0.054308113 0.0058225989
-0.0285 0.054308113 0.0049107671
-0.0266 0.054308113 0.0039989352
-0.024699999 0.054308113 0.0040022731
-0.0228 0.054308113 0.0049207807
-0.0209 0.054308113 0.0040089488
-0.018999999 0.054308113 0.0040122867
-0.017099999 0.054308113 0.0040156245
-0.0152 0.054308113 0.0031037331
-0.0133 0.054308113 0.0040223002
-0.0114 0.054308113 0.0040256381
-0.0094999997 0.054308113 0.0049441457
-0.0076000001 0.054308113 0.0040356517
-0.0057000001 0.054308113 0.0049541593
-0.0038000001 0.054308113 0.0058726072
-0.0019 0.054308113 0.0049607754
0 0.054308113 0.0049641132
0.0019 0.054308113 0.0049674511
0.0038000001 0.054308113 0.0040556788
0.0057000001 0.054308113 0.003143847
0.0076000001 0.054308113 0.0031471848
0.0094999997 0.054308113 0.0022354722
0.0114 0.054308113 0.0022388101
0.0133 0.054308113 0.0031571984
0.0152 0.054308113 0.004075706
0.017099999 0.054308113 0.0031638741
0.018999999 0.054308113 0.0040857196
0.0209 0.054308113 0.0031738877
0.0228 0.054308113 0.0022622347
0.024699999 0.054308113 0.0022655725
0.0266 0.054308113 0.0022689104
0.0285 0.054308113 0.0022722483
0.030400001 0.054308113 0.0022756457
0.032299999 0.054308113 0.0031939745
0.034199998 0.054308113 0.0041124821
0.0361 0.054308113 0.0041158199
0.037999999 0.054308113 0.0032039881
0.039900001 0.054308113 0.0032073259
0.0418 0.054308113 0.0032107234
0.043699998 0.054308113 0.0041291714
0.045600001 0.054308113 0.0068776011
0.047499999 0.054308113 0.0077959895
0.049399998 0.054308113 0.0087143779
0.0513 0.054308113 0.0050609112
0.053199999 0.054308113 0.0041491985
0.055099998 0.054308113 0.002322495
0.057 0.054308113 0.0014107823
0.058899999 0.054308113 0.0014141202
0.060800001 0.054308113 0.0014174581
0.062699996 0.054308113 0.0014208555
0.064599998 0.054308113 0.0014241934
0.066500001 0.054308113 0.0023425221
0.068399996 0.054308113 0.0023459196
0.070299998 0.054308113 0.0023492575
0.0722 0.054308113 0.0023525953
0.074100003 0.054308113 0.0032708645
0.075999998 0.054308113 0.0032742023
0.0779 0.054308113 0.0041925907
0.079800002 0.054308113 0.0041992664
0.081699997 0.054308113 0.0032876134
0.0836 0.054308113 0.0032909513
0.085500002 0.054308113 0.0042093396
0.087399997 0.054308113 0.0042126775
0.089299999 0.054308113 0.0033009648
0.091200002 0.054308113 0.0033043027
0.093099996 0.054308113 0.0042226911
-0.094999999 0.055953812 0.005708456
-0.093099996 0.055953812 0.0057117939
-0.091200002 0.055953812 0.006629467
-0.089299999 0.055953812 0.0057184696
-0.087399997 0.055953812 0.0048074722
-0.085500002 0.055953812 0.0048108101
-0.0836 0.055953812 0.0038997531
-0.081699997 0.055953812 0.0029887557
-0.079800002 0.055953812 0.0039064288
-0.0779 0.055953812 0.0039097667
-0.075999998 0.055953812 0.0030021667
-0.074100003 0.055953812 0.0039197803
-0.0722 0.055953812 0.0030088425
-0.070299998 0.055953812 0.0020979047
-0.068399996 0.055953812 0.0021012425
-0.066500001 0.055953812 0.0011903048
-0.064599998 0.055953812 0.0011936426
-0.062699996 0.055953812 0.0011969805
-0.060800001 0.055953812 0.0021146536
-0.058899999 0.055953812 0.0030322671
-0.057 0.055953812 0.0039498806
-0.055099998 0.055953812 0.0039532185
-0.053199999 0.055953812 0.0039565563
-0.0513 0.055953812 0.0021314025
-0.049399998 0.055953812 0.0021347404
-0.047499999 0.055953812 0.0021380782
-0.045600001 0.055953812 0.0030556917
-0.043699998 0.055953812 0.0048875809
-0.0418 0.055953812 0.0058051944
-0.039900001 0.055953812 0.0039833188
-0.037999999 0.055953812 0.0039866567
-0.0361 0.055953812 0.0049043298
-0.034199998 0.055953812 0.0058218837
-0.032299999 0.055953812 0.0067394972
-0.030400001 0.055953812 0.006742835
-0.0285 0.055953812 0.0049176812
-0.0266 0.055953812 0.0040066838
-0.024699999 0.055953812 0.0040100813
-0.0228 0.055953812 0.0040134192
-0.0209 0.055953812 0.0031026006
-0.018999999 0.055953812 0.0031059384
-0.017099999 0.055953812 0.0040234327
-0.0152 0.055953812 0.0040267706
-0.0133 0.055953812 0.0049443841
-0.0114 0.055953812 0.004947722
-0.0094999997 0.055953812 0.0049543977
-0.0076000001 0.055953812 0.0040434599
-0.0057000001 0.055953812 0.0040468574
-0.0038000001 0.055953812 0.0049644113
-0.0019 0.055953812 0.0049677491
0 0.055953812 0.004971087
0.0019 0.055953812 0.0049744248
0.0038000001 0.055953812 0.0040635467
0.0057000001 0.055953812 0.0031527877
0.0076000001 0.055953812 0.0022419691
0.0094999997 0.055953812 0.002245307
0.0114 0.055953812 0.0022486448
0.0133 0.055953812 0.004080236
0.0152 0.055953812 0.0049978495
0.017099999 0.055953812 0.0050011873
0.018999999 0.055953812 0.005007863
0.0209 0.055953812 0.003182888
0.0228 0.055953812 0.0013579726
0.024699999 0.055953812 0.0013613105
0.0266 0.055953812 0.0022788048
0.0285 0.055953812 0.0022821426
0.030400001 0.055953812 0.0022854805
0.032299999 0.055953812 0.002288878
0.034199998 0.055953812 0.0022922158
0.0361 0.055953812 0.0022955537
0.037999999 0.055953812 0.0022988915
0.039900001 0.055953812 0.0032163858
0.0418 0.055953812 0.0041337609
0.043699998 0.055953812 0.0050512552
0.045600001 0.055953812 0.0068827868
0.047499999 0.055953812 0.0078001618
0.049399998 0.055953812 0.0087175965
0.0513 0.055953812 0.0059820414
0.053199999 0.055953812 0.0050712824
0.055099998 0.055953812 0.0032464862
0.057 0.055953812 0.00142169
0.058899999 0.055953812 0.0014250278
0.060800001 0.055953812 0.00051426888
0.062699996 0.055953812 0.00051760674
0.064599998 0.055953812 0.001435101
0.066500001 0.055953812 0.0023524761
0.068399996 0.055953812 0.0023558736
0.070299998 0.055953812 0.0014451742
0.0722 0.055953812 0.0014485121
0.074100003 0.055953812 0.0023658872
0.075999998 0.055953812 0.0032833219
0.0779 0.055953812 0.0042006373
0.079800002 0.055953812 0.0032933354
0.081699997 0.055953812 0.0023826361
0.0836 0.055953812 0.0023860335
0.085500002 0.055953812 0.003303349
0.087399997 0.055953812 0.0033067465
0.089299999 0.055953812 0.0033100843
0.091200002 0.055953812 0.0033134222
0.093099996 0.055953812 0.0033167601
-0.094999999 0.057599511 0.0057162046
-0.093099996 0.057599511 0.0066329241
-0.091200002 0.057599511 0.0075497031
-0.089299999 0.057599511 0.007553041
-0.087399997 0.057599511 0.0066429377
-0.085500002 0.057599511 0.0057328939
-0.0836 0.057599511 0.0048227906
-0.081699997 0.057599511 0.0029994249
-0.079800002 0.057599511 0.0039161444
-0.0779 0.057599511 0.0039194822
-0.075999998 0.057599511 0.003926158
-0.074100003 0.057599511 0.0048428178
-0.0722 0.057599511 0.0039328933
-0.070299998 0.057599511 0.0039362311
-0.068399996 0.057599511 0.0030261874
-0.066500001 0.057599511 0.0021162033
-0.064599998 0.057599511 0.0012061596
-0.062699996 0.057599511 0.002122879
-0.060800001 0.057599511 0.0030395985
-0.058899999 0.057599511 0.0039563179
-0.057 0.057599511 0.0039596558
-0.055099998 0.057599511 0.0039629936
-0.053199999 0.057599511 0.0039663315
-0.0513 0.057599511 0.0030563474
-0.049399998 0.057599511 0.0030596852
-0.047499999 0.057599511 0.0039764047
-0.045600001 0.057599511 0.0048930049
-0.043699998 0.057599511 0.0058097243
-0.0418 0.057599511 0.0067263842
-0.039900001 0.057599511 0.003993094
-0.037999999 0.057599511 0.0049096942
-0.0361 0.057599511 0.0058264136
-0.034199998 0.057599511 0.0067430139
-0.032299999 0.057599511 0.0067463517
-0.030400001 0.057599511 0.0067496896
-0.0285 0.057599511 0.0058397651
-0.0266 0.057599511 0.004929781
-0.024699999 0.057599511 0.0049331188
-0.0228 0.057599511 0.0049364567
-0.0209 0.057599511 0.0049397945
-0.018999999 0.057599511 0.0049431324
-0.017099999 0.057599511 0.0049464703
-0.0152 0.057599511 0.0058631301
-0.0133 0.057599511 0.005866468
-0.0114 0.057599511 0.0058698058
-0.0094999997 0.057599511 0.0058764815
-0.0076000001 0.057599511 0.004966557
-0.0057000001 0.057599511 0.0049698949
-0.0038000001 0.057599511 0.0058864951
-0.0019 0.057599511 0.005889833
0 0.057599511 0.0068064332
0.0019 0.057599511 0.0068097711
0.0038000001 0.057599511 0.0058999062
0.0057000001 0.057599511 0.004989922
0.0076000001 0.057599511 0.0040801167
0.0094999997 0.057599511 0.0031702518
0.0114 0.057599511 0.0031735897
0.0133 0.057599511 0.0050033331
0.0152 0.057599511 0.0068331361
0.017099999 0.057599511 0.0068364739
0.018999999 0.057599511 0.0059299469
0.0209 0.057599511 0.0041068792
0.0228 0.057599511 0.0031970739
0.024699999 0.057599511 0.0032004118
0.0266 0.057599511 0.0032037497
0.0285 0.057599511 0.0041202903
0.030400001 0.057599511 0.0041236281
0.032299999 0.057599511 0.004126966
0.034199998 0.057599511 0.0032171607
0.0361 0.057599511 0.0041337013
0.037999999 0.057599511 0.0041370392
0.039900001 0.057599511 0.0050534606
0.0418 0.057599511 0.0059700012
0.043699998 0.057599511 0.0059733391
0.045600001 0.057599511 0.0068898201
0.047499999 0.057599511 0.0078063011
0.049399998 0.057599511 0.007809639
0.0513 0.057599511 0.0069031715
0.053199999 0.057599511 0.0059934258
0.055099998 0.057599511 0.0041704774
0.057 0.057599511 0.0023475885
0.058899999 0.057599511 0.0014377832
0.060800001 0.057599511 0.0014411211
0.062699996 0.057599511 0.0023576617
0.064599998 0.057599511 0.0023609996
0.066500001 0.057599511 0.0032774806
0.068399996 0.057599511 0.0032808185
0.070299998 0.057599511 0.0023710728
0.0722 0.057599511 0.0023744106
0.074100003 0.057599511 0.0032908916
0.075999998 0.057599511 0.0032942295
0.0779 0.057599511 0.0042106509
0.079800002 0.057599511 0.0033042431
0.081699997 0.057599511 0.0033076406
0.0836 0.057599511 0.0023978949
0.085500002 0.057599511 0.0024012327
0.087399997 0.057599511 0.0024046302
0.089299999 0.057599511 0.002407968
0.091200002 0.057599511 0.0024113059
0.093099996 0.057599511 0.0024146438
-0.094999999 0.059245214 0.005725801
-0.093099996 0.059245214 0.0057291389
-0.091200002 0.059245214 0.0084698796
-0.089299999 0.059245214 0.0084732175
-0.087399997 0.059245214 0.0075641274
-0.085500002 0.059245214 0.0057424903
-0.0836 0.059245214 0.003921032
-0.081699997 0.059245214 0.0030152798
-0.079800002 0.059245214 0.0030186176
-0.0779 0.059245214 0.0030220151
-0.075999998 0.059245214 0.0039377809
-0.074100003 0.059245214 0.0039411187
-0.0722 0.059245214 0.0039444566
-0.070299998 0.059245214 0.0039477944
-0.068399996 0.059245214 0.003038764
-0.066500001 0.059245214 0.002129674
-0.064599998 0.059245214 0.0012206435
-0.062699996 0.059245214 0.0021363497
-0.060800001 0.059245214 0.003052175
-0.058899999 0.059245214 0.0039679408
-0.057 0.059245214 0.0039712787
-0.055099998 0.059245214 0.0039746165
-0.053199999 0.059245214 0.0039779544
-0.0513 0.059245214 0.003068924
-0.049399998 0.059245214 0.0039846897
-0.047499999 0.059245214 0.0049003959
-0.045600001 0.059245214 0.0058160424
-0.043699998 0.059245214 0.0067318082
-0.0418 0.059245214 0.005826056
-0.039900001 0.059245214 0.0049171448
-0.037999999 0.059245214 0.0058327317
-0.0361 0.059245214 0.0058361292
-0.034199998 0.059245214 0.0067518353
-0.032299999 0.059245214 0.0067551732
-0.030400001 0.059245214 0.0058461428
-0.0285 0.059245214 0.0049372315
-0.0266 0.059245214 0.0031158924
-0.024699999 0.059245214 0.0031192303
-0.0228 0.059245214 0.0031226277
-0.0209 0.059245214 0.0022135973
-0.018999999 0.059245214 0.0031326413
-0.017099999 0.059245214 0.0040483475
-0.0152 0.059245214 0.0040516853
-0.0133 0.059245214 0.0040550232
-0.0114 0.059245214 0.0040583611
-0.0094999997 0.059245214 0.0040616989
-0.0076000001 0.059245214 0.0031527877
-0.0057000001 0.059245214 0.0040684342
-0.0038000001 0.059245214 0.0049840808
-0.0019 0.059245214 0.0049874187
0 0.059245214 0.0049907565
0.0019 0.059245214 0.0049940944
0.0038000001 0.059245214 0.0040851831
0.0057000001 0.059245214 0.0031762719
0.0076000001 0.059245214 0.0031796098
0.0094999997 0.059245214 0.0031829476
0.0114 0.059245214 0.0040985942
0.0133 0.059245214 0.0050141811
0.0152 0.059245214 0.0059297085
0.017099999 0.059245214 0.0059330463
0.018999999 0.059245214 0.0050275922
0.0209 0.059245214 0.004118681
0.0228 0.059245214 0.0032097697
0.024699999 0.059245214 0.0041253567
0.0266 0.059245214 0.0041287541
0.0285 0.059245214 0.004132092
0.030400001 0.059245214 0.0041354299
0.032299999 0.059245214 0.0041387677
0.034199998 0.059245214 0.0032299161
0.0361 0.059245214 0.004145503
0.037999999 0.059245214 0.0041488409
0.039900001 0.059245214 0.0050643682
0.0418 0.059245214 0.005979836
0.043699998 0.059245214 0.0059832335
0.045600001 0.059245214 0.0068988204
0.047499999 0.059245214 0.0069021583
0.049399998 0.059245214 0.0078210235
0.0513 0.059245214 0.0069121718
0.053199999 0.059245214 0.0060032606
0.055099998 0.059245214 0.0041823387
0.057 0.059245214 0.0023612976
0.058899999 0.059245214 0.0023646355
0.060800001 0.059245214 0.0032802224
0.062699996 0.059245214 0.0032835603
0.064599998 0.059245214 0.0041990876
0.066500001 0.059245214 0.0042024255
0.068399996 0.059245214 0.0032936335
0.070299998 0.059245214 0.0023847818
0.0722 0.059245214 0.0023881197
0.074100003 0.059245214 0.0033037066
0.075999998 0.059245214 0.0033070445
0.0779 0.059245214 0.0033103824
0.079800002 0.059245214 0.0033171177
0.081699997 0.059245214 0.0033204556
0.0836 0.059245214 0.003323853
0.085500002 0.059245214 0.0024150014
0.087399997 0.059245214 0.0024183393
0.089299999 0.059245214 0.0015096664
0.091200002 0.059245214 0.0015130639
0.093099996 0.059245214 0.0024284124
-0.094999999 0.060890913 0.0048258901
-0.093099996 0.060890913 0.0057407022
-0.091200002 0.060890913 0.0084785819
-0.089299999 0.060890913 0.0084819198
-0.087399997 0.060890913 0.0084852576
-0.085500002 0.060890913 0.0066655278
-0.0836 0.060890913 0.0039345026
-0.081699997 0.060890913 0.0030296445
-0.079800002 0.060890913 0.003033042
-0.0779 0.060890913 0.0030363798
-0.075999998 0.060890913 0.0030397177
-0.074100003 0.060890913 0.0039545894
-0.0722 0.060890913 0.0039579868
-0.070299998 0.060890913 0.0039613247
-0.068399996 0.060890913 0.0030531883
-0.066500001 0.060890913 0.0021451116
-0.064599998 0.060890913 0.002148509
-0.062699996 0.060890913 0.0030632615
-0.060800001 0.060890913 0.0039780736
-0.058899999 0.060890913 0.0039814711
-0.057 0.060890913 0.0048962235
-0.055099998 0.060890913 0.0048995614
-0.053199999 0.060890913 0.0049029589
-0.0513 0.060890913 0.0049062967
-0.049399998 0.060890913 0.0049096346
-0.047499999 0.060890913 0.0049129725
-0.045600001 0.060890913 0.0058277249
-0.043699998 0.060890913 0.0067424178
-0.0418 0.060890913 0.0067491531
-0.039900001 0.060890913 0.006752491
-0.037999999 0.060890913 0.0067558289
-0.0361 0.060890913 0.0076705813
-0.034199998 0.060890913 0.0067625046
-0.032299999 0.060890913 0.005854547
-0.030400001 0.060890913 0.0058578849
-0.0285 0.060890913 0.0040384531
-0.0266 0.060890913 0.0031303763
-0.024699999 0.060890913 0.0022224188
-0.0228 0.060890913 0.0022258162
-0.0209 0.060890913 0.002232492
-0.018999999 0.060890913 0.0022358894
-0.017099999 0.060890913 0.0031505227
-0.0152 0.060890913 0.0031538606
-0.0133 0.060890913 0.0022459626
-0.0114 0.060890913 0.0031605959
-0.0094999997 0.060890913 0.0031639338
-0.0076000001 0.060890913 0.0040786862
-0.0057000001 0.060890913 0.0040820837
-0.0038000001 0.060890913 0.004996717
-0.0019 0.060890913 0.0050001144
0 0.060890913 0.0040920973
0.0019 0.060890913 0.0040954947
0.0038000001 0.060890913 0.0031874776
0.0057000001 0.060890913 0.0031908154
0.0076000001 0.060890913 0.0031941533
0.0094999997 0.060890913 0.0041089058
0.0114 0.060890913 0.0050235391
0.0133 0.060890913 0.0059381723
0.0152 0.060890913 0.0059415102
0.017099999 0.060890913 0.0050369501
0.018999999 0.060890913 0.005040288
0.0209 0.060890913 0.0041323304
0.0228 0.060890913 0.0041357279
0.024699999 0.060890913 0.0041390657
0.0266 0.060890913 0.0041424036
0.0285 0.060890913 0.0041458011
0.030400001 0.060890913 0.0041491389
0.032299999 0.060890913 0.0041524768
0.034199998 0.060890913 0.0041558146
0.0361 0.060890913 0.0041592121
0.037999999 0.060890913 0.0050737858
0.039900001 0.060890913 0.0050771236
0.0418 0.060890913 0.0059917569
0.043699998 0.060890913 0.0059950948
0.045600001 0.060890913 0.0059984326
0.047499999 0.060890913 0.0060017705
0.049399998 0.060890913 0.0060084462
0.0513 0.060890913 0.0069229603
0.053199999 0.060890913 0.0060151815
0.055099998 0.060890913 0.0051072836
0.057 0.060890913 0.0041994452
0.058899999 0.060890913 0.0051140189
0.060800001 0.060890913 0.006028533
0.062699996 0.060890913 0.0060318708
0.064599998 0.060890913 0.0060352683
0.066500001 0.060890913 0.0051273704
0.068399996 0.060890913 0.004219532
0.070299998 0.060890913 0.0042229295
0.0722 0.060890913 0.0042262673
0.074100003 0.060890913 0.0033183694
0.075999998 0.060890913 0.0033217072
0.0779 0.060890913 0.0033251047
0.079800002 0.060890913 0.0033317804
0.081699997 0.060890913 0.0042464137
0.0836 0.060890913 0.0033385158
0.085500002 0.060890913 0.0033418536
0.087399997 0.060890913 0.0024341345
0.089299999 0.060890913 0.0015263557
0.091200002 0.060890913 0.0015296936
0.093099996 0.060890913 0.0024442077
-0.094999999 0.062536612 0.0057508349
-0.093099996 0.062536612 0.006664753
-0.091200002 0.062536612 0.0093997121
-0.089299999 0.062536612 0.01031357
-0.087399997 0.062536612 0.010316908
-0.085500002 0.062536612 0.0084992051
-0.0836 0.062536612 0.0066815019
-0.081699997 0.062536612 0.0039565563
-0.079800002 0.062536612 0.0039598942
-0.0779 0.062536612 0.003963232
-0.075999998 0.062536612 0.0039666295
-0.074100003 0.062536612 0.0039699674
-0.0722 0.062536612 0.0039733052
-0.070299998 0.062536612 0.0039767027
-0.068399996 0.062536612 0.0039800406
-0.066500001 0.062536612 0.0030729771
-0.064599998 0.062536612 0.0039867759
-0.062699996 0.062536612 0.0049006343
-0.060800001 0.062536612 0.0049040318
-0.058899999 0.062536612 0.0058178306
-0.057 0.062536612 0.0058211684
-0.055099998 0.062536612 0.0058245659
-0.053199999 0.062536612 0.0058279037
-0.0513 0.062536612 0.0058312416
-0.049399998 0.062536612 0.0058345795
-0.047499999 0.062536612 0.0058413148
-0.045600001 0.062536612 0.0058446527
-0.043699998 0.062536612 0.0067584515
-0.0418 0.062536612 0.0058513284
-0.039900001 0.062536612 0.0076755285
-0.037999999 0.062536612 0.0076788664
-0.0361 0.062536612 0.0076822042
-0.034199998 0.062536612 0.0067752004
-0.032299999 0.062536612 0.0058680773
-0.030400001 0.062536612 0.0058714747
-0.0285 0.062536612 0.0049644113
-0.0266 0.062536612 0.0031468868
-0.024699999 0.062536612 0.0031502247
-0.0228 0.062536612 0.0031536222
-0.0209 0.062536612 0.0031603575
-0.018999999 0.062536612 0.0031636953
-0.017099999 0.062536612 0.0031670332
-0.0152 0.062536612 0.0031704307
-0.0133 0.062536612 0.0022633672
-0.0114 0.062536612 0.0040874481
-0.0094999997 0.062536612 0.0050012469
-0.0076000001 0.062536612 0.0050046444
-0.0057000001 0.062536612 0.005918324
-0.0038000001 0.062536612 0.0068320632
-0.0019 0.062536612 0.0059250593
0 0.062536612 0.0041075945
0.0019 0.062536612 0.004110992
0.0038000001 0.062536612 0.0032040477
0.0057000001 0.062536612 0.0032073855
0.0076000001 0.062536612 0.0050314665
0.0094999997 0.062536612 0.0050348043
0.0114 0.062536612 0.0059484839
0.0133 0.062536612 0.0068622231
0.0152 0.062536612 0.006865561
0.017099999 0.062536612 0.005961895
0.018999999 0.062536612 0.0059652328
0.0209 0.062536612 0.0050582886
0.0228 0.062536612 0.0041512251
0.024699999 0.062536612 0.0050649643
0.0266 0.062536612 0.0041579604
0.0285 0.062536612 0.0041612983
0.030400001 0.062536612 0.0050750375
0.032299999 0.062536612 0.0050783753
0.034199998 0.062536612 0.0041713715
0.0361 0.062536612 0.0050851107
0.037999999 0.062536612 0.0041781068
0.039900001 0.062536612 0.0041814446
0.0418 0.062536612 0.0050951838
0.043699998 0.062536612 0.00418818
0.045600001 0.062536612 0.0041915178
0.047499999 0.062536612 0.0051085949
0.049399998 0.062536612 0.0051119328
0.0513 0.062536612 0.0069358349
0.053199999 0.062536612 0.0069391727
0.055099998 0.062536612 0.0069425106
0.057 0.062536612 0.007856071
0.058899999 0.062536612 0.0078594089
0.060800001 0.062536612 0.0078627467
0.062699996 0.062536612 0.0078660846
0.064599998 0.062536612 0.0069592595
0.066500001 0.062536612 0.0060523748
0.068399996 0.062536612 0.0060557127
0.070299998 0.062536612 0.0060590506
0.0722 0.062536612 0.0060623884
0.074100003 0.062536612 0.0042452216
0.075999998 0.062536612 0.0033384562
0.0779 0.062536612 0.003341794
0.079800002 0.062536612 0.0042586923
0.081699997 0.062536612 0.0051723123
0.0836 0.062536612 0.004265368
0.085500002 0.062536612 0.0033586025
0.087399997 0.062536612 0.0024517775
0.089299999 0.062536612 0.0024551153
0.091200002 0.062536612 0.0024585128
0.093099996 0.062536612 0.0024618506
-0.094999999 0.064182311 0.0057695508
-0.093099996 0.064182311 0.0057695508
-0.091200002 0.064182311 0.0085016489
-0.089299999 0.064182311 0.0094146132
-0.087399997 0.064182311 0.0094179511
-0.085500002 0.064182311 0.0085116625
-0.0836 0.064182311 0.0066959262
-0.081699997 0.064182311 0.0039739013
-0.079800002 0.064182311 0.0030676723
-0.0779 0.064182311 0.0021615028
-0.075999998 0.064182311 0.0021648407
-0.074100003 0.064182311 0.003077805
-0.0722 0.064182311 0.0039907098
-0.070299998 0.064182311 0.0039940476
-0.068399996 0.064182311 0.0039974451
-0.066500001 0.064182311 0.004000783
-0.064599998 0.064182311 0.0049136281
-0.062699996 0.064182311 0.004916966
-0.060800001 0.064182311 0.0049203634
-0.058899999 0.064182311 0.0049237013
-0.057 0.064182311 0.0058366656
-0.055099998 0.064182311 0.0058400035
-0.053199999 0.064182311 0.0067528486
-0.0513 0.064182311 0.0058466792
-0.049399998 0.064182311 0.0040344
-0.047499999 0.064182311 0.0040377378
-0.045600001 0.064182311 0.0040411353
-0.043699998 0.064182311 0.0049539208
-0.0418 0.064182311 0.0058668256
-0.039900001 0.064182311 0.0067796707
-0.037999999 0.064182311 0.0076925159
-0.0361 0.064182311 0.0076958537
-0.034199998 0.064182311 0.0067897439
-0.032299999 0.064182311 0.0058835745
-0.030400001 0.064182311 0.005886972
-0.0285 0.064182311 0.0049807429
-0.0266 0.064182311 0.0031652451
-0.024699999 0.064182311 0.0031686425
-0.0228 0.064182311 0.0031753182
-0.0209 0.064182311 0.0031787157
-0.018999999 0.064182311 0.0031820536
-0.017099999 0.064182311 0.003185451
-0.0152 0.064182311 0.0031887889
-0.0133 0.064182311 0.0031921864
-0.0114 0.064182311 0.0041049719
-0.0094999997 0.064182311 0.0050176978
-0.0076000001 0.064182311 0.0059305429
-0.0057000001 0.064182311 0.0059338808
-0.0038000001 0.064182311 0.0068466663
-0.0019 0.064182311 0.0050311089
0 0.064182311 0.0032157302
0.0019 0.064182311 0.00230968
0.0038000001 0.064182311 0.0023130178
0.0057000001 0.064182311 0.0032258034
0.0076000001 0.064182311 0.0041385889
0.0094999997 0.064182311 0.0050512552
0.0114 0.064182311 0.0059641004
0.0133 0.064182311 0.0068768263
0.0152 0.064182311 0.0068801641
0.017099999 0.064182311 0.0059775114
0.018999999 0.064182311 0.0059808493
0.0209 0.064182311 0.0041654706
0.0228 0.064182311 0.0032594204
0.024699999 0.064182311 0.0041721463
0.0266 0.064182311 0.0041755438
0.0285 0.064182311 0.0041788816
0.030400001 0.064182311 0.005091548
0.032299999 0.064182311 0.004185617
0.034199998 0.064182311 0.0041889548
0.0361 0.064182311 0.0041923523
0.037999999 0.064182311 0.0041956902
0.039900001 0.064182311 0.0032896996
0.0418 0.064182311 0.0042024255
0.043699998 0.064182311 0.0042057633
0.045600001 0.064182311 0.0051217675
0.047499999 0.064182311 0.0051251054
0.049399998 0.064182311 0.0051285028
0.0513 0.064182311 0.0069504976
0.053199999 0.064182311 0.0069538951
0.055099998 0.064182311 0.006957233
0.057 0.064182311 0.0069605708
0.058899999 0.064182311 0.0069639087
0.060800001 0.064182311 0.0069672465
0.062699996 0.064182311 0.006970644
0.064599998 0.064182311 0.006064713
0.066500001 0.064182311 0.0060680509
0.068399996 0.064182311 0.0051620603
0.070299998 0.064182311 0.0051653981
0.0722 0.064182311 0.005168736
0.074100003 0.064182311 0.0042629242
0.075999998 0.064182311 0.0033569932
0.0779 0.064182311 0.0033603907
0.079800002 0.064182311 0.0042763352
0.081699997 0.064182311 0.0051888824
0.0836 0.064182311 0.0051922798
0.085500002 0.064182311 0.0042864084
0.087399997 0.064182311 0.0024713278
0.089299999 0.064182311 0.0024746656
0.091200002 0.064182311 0.0015687943
0.093099996 0.064182311 0.002481401
-0.094999999 0.065828018 0.0057867765
-0.093099996 0.065828018 0.0057867765
-0.091200002 0.065828018 0.00760746
-0.089299999 0.065828018 0.0085194707
-0.087399997 0.065828018 0.0085228086
-0.085500002 0.065828018 0.0076175332
-0.0836 0.065828018 0.0039897561
-0.081699997 0.065828018 0.0030844808
-0.079800002 0.065828018 0.002179265
-0.0779 0.065828018 0.0021826029
-0.075999998 0.065828018 0.0021860003
-0.074100003 0.065828018 0.0030979514
-0.0722 0.065828018 0.0040099621
-0.070299998 0.065828018 0.0049219131
-0.068399996 0.065828018 0.004925251
-0.066500001 0.065828018 0.0058371425
-0.064599998 0.065828018 0.0058404803
-0.062699996 0.065828018 0.0058438778
-0.060800001 0.065828018 0.0049387217
-0.058899999 0.065828018 0.0049420595
-0.057 0.065828018 0.005853951
-0.055099998 0.065828018 0.0058572888
-0.053199999 0.065828018 0.0058606267
-0.0513 0.065828018 0.004958868
-0.049399998 0.065828018 0.0040536523
-0.047499999 0.065828018 0.0031484962
-0.045600001 0.065828018 0.003151834
-0.043699998 0.065828018 0.0040637851
-0.0418 0.065828018 0.0049756765
-0.039900001 0.065828018 0.0058875084
-0.037999999 0.065828018 0.0058908463
-0.0361 0.065828018 0.0058942437
-0.034199998 0.065828018 0.0058975816
-0.032299999 0.065828018 0.004992485
-0.030400001 0.065828018 0.0049958229
-0.0285 0.065828018 0.0049991608
-0.0266 0.065828018 0.0050025582
-0.024699999 0.065828018 0.0040974021
-0.0228 0.065828018 0.0031956434
-0.0209 0.065828018 0.0031989813
-0.018999999 0.065828018 0.0032023787
-0.017099999 0.065828018 0.0032057166
-0.0152 0.065828018 0.0041176081
-0.0133 0.065828018 0.0050294399
-0.0114 0.065828018 0.0059412122
-0.0094999997 0.065828018 0.00594455
-0.0076000001 0.065828018 0.0059479475
-0.0057000001 0.065828018 0.0059512854
-0.0038000001 0.065828018 0.0068631768
-0.0019 0.065828018 0.0050495863
0 0.065828018 0.0032360554
0.0019 0.065828018 0.0023309588
0.0038000001 0.065828018 0.0014258027
0.0057000001 0.065828018 0.0023376942
0.0076000001 0.065828018 0.0041579604
0.0094999997 0.065828018 0.0041612983
0.0114 0.065828018 0.0050731301
0.0133 0.065828018 0.0068933368
0.0152 0.065828018 0.0078085065
0.017099999 0.065828018 0.00690341
0.018999999 0.065828018 0.0059983134
0.0209 0.065828018 0.0041848421
0.0228 0.065828018 0.0023713708
0.024699999 0.065828018 0.0032832026
0.0266 0.065828018 0.0032865405
0.0285 0.065828018 0.0041983128
0.030400001 0.065828018 0.005110085
0.032299999 0.065828018 0.0042050481
0.034199998 0.065828018 0.0033000112
0.0361 0.065828018 0.0033034086
0.037999999 0.065828018 0.0033067465
0.039900001 0.065828018 0.0033101439
0.0418 0.065828018 0.0033134818
0.043699998 0.065828018 0.0033168793
0.045600001 0.065828018 0.0042319894
0.047499999 0.065828018 0.0042353272
0.049399998 0.065828018 0.0051470399
0.0513 0.065828018 0.0069671273
0.053199999 0.065828018 0.00787884
0.055099998 0.065828018 0.0078821778
0.057 0.065828018 0.0078855157
0.058899999 0.065828018 0.0078889132
0.060800001 0.065828018 0.0069838762
0.062699996 0.065828018 0.0051705837
0.064599998 0.065828018 0.0051739216
0.066500001 0.065828018 0.005177319
0.068399996 0.065828018 0.0051806569
0.070299998 0.065828018 0.0042756796
0.0722 0.065828018 0.0042790771
0.074100003 0.065828018 0.0042824149
0.075999998 0.065828018 0.0033774972
0.0779 0.065828018 0.0033808351
0.079800002 0.065828018 0.0042958856
0.081699997 0.065828018 0.0052075386
0.0836 0.065828018 0.0052108765
0.085500002 0.065828018 0.0043059587
0.087399997 0.065828018 0.003401041
0.089299999 0.065828018 0.0024961233
0.091200002 0.065828018 0.0024995208
0.093099996 0.065828018 0.0025028586
-0.094999999 0.067473717 0.0067136884
-0.093099996 0.067473717 0.0067136884
-0.091200002 0.067473717 0.0085324645
-0.089299999 0.067473717 0.0085358024
-0.087399997 0.067473717 0.0085391402
-0.085500002 0.067473717 0.0049151778
-0.0836 0.067473717 0.0040108562
-0.081699997 0.067473717 0.0031065941
-0.079800002 0.067473717 0.0031099319
-0.0779 0.067473717 0.0040209889
-0.075999998 0.067473717 0.0040243268
-0.074100003 0.067473717 0.0049353838
-0.0722 0.067473717 0.0049387217
-0.070299998 0.067473717 0.005849719
-0.068399996 0.067473717 0.0058530569
-0.066500001 0.067473717 0.0067639947
-0.064599998 0.067473717 0.0067673922
-0.062699996 0.067473717 0.00677073
-0.060800001 0.067473717 0.0067740679
-0.058899999 0.067473717 0.0067774653
-0.057 0.067473717 0.0058732629
-0.055099998 0.067473717 0.0058799386
-0.053199999 0.067473717 0.0058833361
-0.0513 0.067473717 0.004979074
-0.049399998 0.067473717 0.0040748715
-0.047499999 0.067473717 0.0040782094
-0.045600001 0.067473717 0.0040816069
-0.043699998 0.067473717 0.0049925447
-0.0418 0.067473717 0.0049958825
-0.039900001 0.067473717 0.00499928
-0.037999999 0.067473717 0.0050026178
-0.0361 0.067473717 0.0050060153
-0.034199998 0.067473717 0.0050093532
-0.032299999 0.067473717 0.0050127506
-0.030400001 0.067473717 0.0050160885
-0.0285 0.067473717 0.0059270263
-0.0266 0.067473717 0.0059303641
-0.024699999 0.067473717 0.0059337616
-0.0228 0.067473717 0.0041253567
-0.0209 0.067473717 0.0041287541
-0.018999999 0.067473717 0.004132092
-0.017099999 0.067473717 0.0050430298
-0.0152 0.067473717 0.005953908
-0.0133 0.067473717 0.0077723265
-0.0114 0.067473717 0.0077756643
-0.0094999997 0.067473717 0.0068714619
-0.0076000001 0.067473717 0.005967319
-0.0057000001 0.067473717 0.0059707165
-0.0038000001 0.067473717 0.0068815351
-0.0019 0.067473717 0.0050699115
0 0.067473717 0.0041657686
0.0019 0.067473717 0.0032616258
0.0038000001 0.067473717 0.0023574829
0.0057000001 0.067473717 0.0023608208
0.0076000001 0.067473717 0.0032717586
0.0094999997 0.067473717 0.0041859746
0.0114 0.067473717 0.0060043335
0.0133 0.067473717 0.0069150925
0.0152 0.067473717 0.0078259706
0.017099999 0.067473717 0.0078293085
0.018999999 0.067473717 0.0069251657
0.0209 0.067473717 0.0051136613
0.0228 0.067473717 0.004209578
0.024699999 0.067473717 0.0042129159
0.0266 0.067473717 0.0042163134
0.0285 0.067473717 0.0051271319
0.030400001 0.067473717 0.0051304698
0.032299999 0.067473717 0.0042263865
0.034199998 0.067473717 0.004229784
0.0361 0.067473717 0.0042331219
0.037999999 0.067473717 0.0042365193
0.039900001 0.067473717 0.0042398572
0.0418 0.067473717 0.0042432547
0.043699998 0.067473717 0.0042465925
0.045600001 0.067473717 0.0042533278
0.047499999 0.067473717 0.0051640868
0.049399998 0.067473717 0.0060749054
0.0513 0.067473717 0.0069856048
0.053199999 0.067473717 0.0078964233
0.055099998 0.067473717 0.0088071227
0.057 0.067473717 0.0097178817
0.058899999 0.067473717 0.008813858
0.060800001 0.067473717 0.0070023537
0.062699996 0.067473717 0.0051910281
0.064599998 0.067473717 0.0042870045
0.066500001 0.067473717 0.0042904019
0.068399996 0.067473717 0.0042937398
0.070299998 0.067473717 0.0042970777
0.0722 0.067473717 0.0033931136
0.074100003 0.067473717 0.0033965111
0.075999998 0.067473717 0.0024924278
0.0779 0.067473717 0.0024958253
0.079800002 0.067473717 0.0034099817
0.081699997 0.067473717 0.0052280426
0.0836 0.067473717 0.0052313805
0.085500002 0.067473717 0.0043274164
0.087399997 0.067473717 0.0034234524
0.089299999 0.067473717 0.0034268498
0.091200002 0.067473717 0.0025228262
0.093099996 0.067473717 0.0025261641
-0.094999999 0.069119416 0.0076405406
-0.093099996 0.069119416 0.0076405406
-0.091200002 0.069119416 0.0085506439
-0.089299999 0.069119416 0.0076472163
-0.087399997 0.069119416 0.0058405995
-0.085500002 0.069119416 0.0040305257
-0.0836 0.069119416 0.0031271577
-0.081699997 0.069119416 0.0031304955
-0.079800002 0.069119416 0.003133893
-0.0779 0.069119416 0.0040439963
-0.075999998 0.069119416 0.0040473938
-0.074100003 0.069119416 0.0049574375
-0.0722 0.069119416 0.0058674812
-0.070299998 0.069119416 0.0067775249
-0.068399996 0.069119416 0.0067809224
-0.066500001 0.069119416 0.005877614
-0.064599998 0.069119416 0.0067876577
-0.062699996 0.069119416 0.0067909956
-0.060800001 0.069119416 0.0067943335
-0.058899999 0.069119416 0.0067977309
-0.057 0.069119416 0.0049911141
-0.055099998 0.069119416 0.0049945116
-0.053199999 0.069119416 0.0049978495
-0.0513 0.069119416 0.0050012469
-0.049399998 0.069119416 0.0050045848
-0.047499999 0.069119416 0.0050079823
-0.045600001 0.069119416 0.0050113201
-0.043699998 0.069119416 0.0059213042
-0.0418 0.069119416 0.0059247017
-0.039900001 0.069119416 0.0050214529
-0.037999999 0.069119416 0.0041181445
-0.0361 0.069119416 0.0050281882
-0.034199998 0.069119416 0.0041249394
-0.032299999 0.069119416 0.0050349236
-0.030400001 0.069119416 0.0059448481
-0.0285 0.069119416 0.0068548322
-0.0266 0.069119416 0.0068582296
-0.024699999 0.069119416 0.0050517321
-0.0228 0.069119416 0.003241837
-0.0209 0.069119416 0.0032452345
-0.018999999 0.069119416 0.0041552782
-0.017099999 0.069119416 0.0059717894
-0.0152 0.069119416 0.0068817139
-0.0133 0.069119416 0.0077915788
-0.0114 0.069119416 0.0077949762
-0.0094999997 0.069119416 0.0068917871
-0.0076000001 0.069119416 0.0059885979
-0.0057000001 0.069119416 0.0059919953
-0.0038000001 0.069119416 0.0059953332
-0.0019 0.069119416 0.005092144
0 0.069119416 0.0041889548
0.0019 0.069119416 0.003285706
0.0038000001 0.069119416 0.0032891035
0.0057000001 0.069119416 0.003292501
0.0076000001 0.069119416 0.0042024255
0.0094999997 0.069119416 0.0051156878
0.0114 0.069119416 0.0051190853
0.0133 0.069119416 0.0060289502
0.0152 0.069119416 0.0069388747
0.017099999 0.069119416 0.0069422126
0.018999999 0.069119416 0.0069455504
0.0209 0.069119416 0.0060424209
0.0228 0.069119416 0.0042327642
0.024699999 0.069119416 0.0042361617
0.0266 0.069119416 0.0042394996
0.0285 0.069119416 0.0051493645
0.030400001 0.069119416 0.0051527619
0.032299999 0.069119416 0.0051560998
0.034199998 0.069119416 0.0042530298
0.0361 0.069119416 0.0042563677
0.037999999 0.069119416 0.0042597651
0.039900001 0.069119416 0.0051695704
0.0418 0.069119416 0.0051729679
0.043699998 0.069119416 0.0051763058
0.045600001 0.069119416 0.0051830411
0.047499999 0.069119416 0.0051864386
0.049399998 0.069119416 0.0060962439
0.0513 0.069119416 0.0070060492
0.053199999 0.069119416 0.0070094466
0.055099998 0.069119416 0.0079191923
0.057 0.069119416 0.0079225302
0.058899999 0.069119416 0.007925868
0.060800001 0.069119416 0.0061164498
0.062699996 0.069119416 0.0052133799
0.064599998 0.069119416 0.0034038424
0.066500001 0.069119416 0.0034071803
0.068399996 0.069119416 0.0043170452
0.070299998 0.069119416 0.0034139752
0.0722 0.069119416 0.0034173131
0.074100003 0.069119416 0.0025143623
0.075999998 0.069119416 0.001611352
0.0779 0.069119416 0.0016146898
0.079800002 0.069119416 0.0034341812
0.081699997 0.069119416 0.0052503943
0.0836 0.069119416 0.004347384
0.085500002 0.069119416 0.003444314
0.087399997 0.069119416 0.0025413632
0.089299999 0.069119416 0.0025447607
0.091200002 0.069119416 0.0016417503
0.093099996 0.069119416 0.002551496
-0.094999999 0.070765115 0.0085673928
-0.093099996 0.070765115 0.0085673928
-0.091200002 0.070765115 0.0085707307
-0.089299999 0.070765115 0.0067660213
-0.087399997 0.070765115 0.0049578547
-0.085500002 0.070765115 0.0040553808
-0.0836 0.070765115 0.0040587783
-0.081699997 0.070765115 0.0040621758
-0.079800002 0.070765115 0.0049713254
-0.0779 0.070765115 0.005880475
-0.075999998 0.070765115 0.0058838129
-0.074100003 0.070765115 0.0058872104
-0.0722 0.070765115 0.0067963004
-0.070299998 0.070765115 0.0067996383
-0.068399996 0.070765115 0.0058972836
-0.066500001 0.070765115 0.005900681
-0.064599998 0.070765115 0.0059040189
-0.062699996 0.070765115 0.0068131089
-0.060800001 0.070765115 0.0068164468
-0.058899999 0.070765115 0.0059174895
-0.057 0.070765115 0.0050151348
-0.055099998 0.070765115 0.0050185323
-0.053199999 0.070765115 0.0050218701
-0.0513 0.070765115 0.0050252676
-0.049399998 0.070765115 0.0050286651
-0.047499999 0.070765115 0.0050320029
-0.045600001 0.070765115 0.005941093
-0.043699998 0.070765115 0.0068501234
-0.0418 0.070765115 0.0068534613
-0.039900001 0.070765115 0.0059511662
-0.037999999 0.070765115 0.005048871
