# .PCD v0.7 - Point Cloud Data file format
VERSION 0.7
FIELDS x y z
SIZE 4 4 4
TYPE F F F
COUNT 1 1 1
WIDTH 1315
HEIGHT 1
VIEWPOINT 0 0 0 1 0 0 0
POINTS 1315
DATA ascii
-0.091200002 -0.065828018 0.0029245019
-0.087399997 -0.065828018 0.0039216876
-0.0836 -0.065828018 0.0029399991
-0.079800002 -0.065828018 0.002946198
-0.075999998 -0.065828018 0.0029523969
-0.0722 -0.065828018 0.0029616952
-0.068399996 -0.065828018 0.0029678941
-0.064599998 -0.065828018 0.0039619207
-0.060800001 -0.065828018 0.0050913692
-0.057 -0.065828018 0.0029895902
-0.053199999 -0.065828018 0.004971385
-0.049399998 -0.065828018 0.0049775839
-0.045600001 -0.065828018 0.0020235181
-0.0418 -0.065828018 0.0030174255
-0.037999999 -0.065828018 0.0061233044
-0.034199998 -0.065828018 0.0061294436
-0.030400001 -0.065828018 0.0030391216
-0.0266 -0.065828018 0.0030453205
-0.0228 -0.065828018 0.0020669103
-0.018999999 -0.065828018 0.0030608177
-0.0152 -0.065828018 0.0051777959
-0.0114 -0.065828018 0.0041952729
-0.0076000001 -0.065828018 0.0042045712
-0.0038000001 -0.065828018 0.0051993728
0 -0.065828018 0.0061942339
0.0038000001 -0.065828018 0.0071890354
0.0076000001 -0.065828018 0.0071982741
0.0114 -0.065828018 0.0052272081
0.0152 -0.065828018 0.0062220097
0.018999999 -0.065828018 0.0062312484
0.0228 -0.065828018 0.0062373877
0.0266 -0.065828018 0.004132092
0.030400001 -0.065828018 0.0041413903
0.034199998 -0.065828018 0.0062590241
0.037999999 -0.065828018 0.0062651634
0.0418 -0.065828018 0.0062713027
0.045600001 -0.065828018 0.0052919984
0.049399998 -0.065828018 0.0041754246
0.053199999 -0.065828018 0.0031940341
0.057 -0.065828018 0.0032033324
0.060800001 -0.065828018 0.0032095313
0.064599998 -0.065828018 0.0032157302
0.068399996 -0.065828018 0.0032249689
0.0722 -0.065828018 0.0032311678
0.075999998 -0.065828018 0.0032373667
0.079800002 -0.065828018 0.0042341948
0.0836 -0.065828018 0.0042403936
0.087399997 -0.065828018 0.0022715926
0.091200002 -0.065828018 0.0012902617
-0.094999999 -0.062536612 0.0036460757
-0.091200002 -0.062536612 0.0036491752
-0.087399997 -0.062536612 0.0056303144
-0.0836 -0.062536612 0.0036646724
-0.079800002 -0.062536612 0.0036708713
-0.075999998 -0.062536612 0.0036801696
-0.0722 -0.062536612 0.0046722293
-0.068399996 -0.062536612 0.0056644082
-0.064599998 -0.062536612 0.0066564679
-0.060800001 -0.062536612 0.0037080646
-0.057 -0.062536612 0.0027282834
-0.053199999 -0.062536612 0.0047063231
-0.049399998 -0.062536612 0.0047156215
-0.045600001 -0.062536612 0.0037359595
-0.0418 -0.062536612 0.0037421584
-0.037999999 -0.062536612 0.0057200789
-0.034199998 -0.062536612 0.0047435164
-0.030400001 -0.062536612 0.0027779937
-0.0266 -0.062536612 0.0027841926
-0.0228 -0.062536612 0.0018076897
-0.018999999 -0.062536612 0.00082808733
-0.0152 -0.062536612 0.0028059483
-0.0114 -0.062536612 0.0057696104
-0.0076000001 -0.062536612 0.0059112906
-0.0038000001 -0.062536612 0.0059174895
0 -0.062536612 0.0059236884
0.0038000001 -0.062536612 0.0079033375
0.0076000001 -0.062536612 0.0069258213
0.0114 -0.062536612 0.0059452653
0.0152 -0.062536612 0.0069381595
0.018999999 -0.062536612 0.0059607625
0.0228 -0.062536612 0.0048488379
0.0266 -0.062536612 0.0048550367
0.030400001 -0.062536612 0.0068357587
0.034199998 -0.062536612 0.0059885383
0.037999999 -0.062536612 0.0058624148
0.0418 -0.062536612 0.0058717132
0.045600001 -0.062536612 0.0060102344
0.049399998 -0.062536612 0.0068697929
0.053199999 -0.062536612 0.0058902502
0.057 -0.062536612 0.0049138665
0.060800001 -0.062536612 0.003934443
0.064599998 -0.062536612 0.0039406419
0.068399996 -0.062536612 0.0039499402
0.0722 -0.062536612 0.0049417615
0.075999998 -0.062536612 0.0069192052
0.079800002 -0.062536612 0.0059428811
0.0836 -0.062536612 0.0039778948
0.087399997 -0.062536612 0.0029984117
0.091200002 -0.062536612 0.0010334253
-0.094999999 -0.059245214 0.0043743849
-0.091200002 -0.059245214 0.0053647161
-0.087399997 -0.059245214 0.0053709149
-0.0836 -0.059245214 0.0043930411
-0.079800002 -0.059245214 0.0024342537
-0.075999998 -0.059245214 0.0014564991
-0.0722 -0.059245214 0.0024467111
-0.068399996 -0.059245214 0.003436923
-0.064599998 -0.059245214 0.0013552308
-0.060800001 -0.059245214 0.0024684668
-0.057 -0.059245214 0.0024747252
-0.053199999 -0.059245214 0.0034648776
-0.049399998 -0.059245214 0.0034742355
-0.045600001 -0.059245214 0.0024964809
-0.0418 -0.059245214 0.0025026798
-0.037999999 -0.059245214 0.0044799447
-0.034199998 -0.059245214 0.0044861436
-0.030400001 -0.059245214 0.0025244951
-0.0266 -0.059245214 0.0025337934
-0.0228 -0.059245214 0.0025400519
-0.018999999 -0.059245214 0.0025462508
-0.0152 -0.059245214 0.0045202971
-0.0114 -0.059245214 0.0094460249
-0.0076000001 -0.059245214 0.0086029172
-0.0038000001 -0.059245214 0.0076242089
0 -0.059245214 0.0076304078
0.0038000001 -0.059245214 0.0096093416
0.0076000001 -0.059245214 0.008630693
0.0114 -0.059245214 0.0076520443
0.0152 -0.059245214 0.0076582432
0.018999999 -0.059245214 0.0076674819
0.0228 -0.059245214 0.0075432062
0.0266 -0.059245214 0.0065655708
0.030400001 -0.059245214 0.0085424781
0.034199998 -0.059245214 0.0076953173
0.037999999 -0.059245214 0.0085548759
0.0418 -0.059245214 0.0067260265
0.045600001 -0.059245214 0.0087016821
0.049399998 -0.059245214 0.0085765123
0.053199999 -0.059245214 0.004650712
0.057 -0.059245214 0.0056407452
0.060800001 -0.059245214 0.005646944
0.064599998 -0.059245214 0.0056531429
0.068399996 -0.059245214 0.0056624413
0.0722 -0.059245214 0.0056686401
0.075999998 -0.059245214 0.0066584945
0.079800002 -0.059245214 0.0056841373
0.0836 -0.059245214 0.0027391911
0.087399997 -0.059245214 0.0027453899
0.091200002 -0.059245214 0.001767993
-0.094999999 -0.055953812 0.0051066279
-0.091200002 -0.055953812 0.0051128268
-0.087399997 -0.055953812 0.0051190257
-0.0836 -0.055953812 0.0061073899
-0.079800002 -0.055953812 0.0030491948
-0.075999998 -0.055953812 0.0020742416
-0.0722 -0.055953812 0.00012135506
-0.068399996 -0.055953812 0.001108706
-0.064599998 -0.055953812 0.0020961165
-0.060800001 -0.055953812 0.0021023154
-0.057 -0.055953812 0.0032108426
-0.053199999 -0.055953812 0.0030990839
-0.049399998 -0.055953812 0.0021241903
-0.045600001 -0.055953812 0.0032326579
-0.0418 -0.055953812 0.0042240024
-0.037999999 -0.055953812 0.0042302012
-0.034199998 -0.055953812 0.0042364597
-0.030400001 -0.055953812 0.0032606721
-0.0266 -0.055953812 0.003148973
-0.0228 -0.055953812 0.0042582154
-0.018999999 -0.055953812 0.0081924796
-0.0152 -0.055953812 0.010292292
-0.0114 -0.055953812 0.015213192
-0.0076000001 -0.055953812 0.017185271
-0.0038000001 -0.055953812 0.01522857
0 -0.055953812 0.014251769
0.0038000001 -0.055953812 0.015240848
0.0076000001 -0.055953812 0.017212808
0.0114 -0.055953812 0.014273286
0.0152 -0.055953812 0.012313664
0.018999999 -0.055953812 0.011340022
0.0228 -0.055953812 0.0092518926
0.0266 -0.055953812 0.0082761645
0.030400001 -0.055953812 0.01234448
0.034199998 -0.055953812 0.013333499
0.037999999 -0.055953812 0.013339639
0.0418 -0.055953812 0.013345778
0.045600001 -0.055953812 0.013355017
0.049399998 -0.055953812 0.010412693
0.053199999 -0.055953812 0.0053832531
0.057 -0.055953812 0.005389452
0.060800001 -0.055953812 0.0053956509
0.064599998 -0.055953812 0.0054019094
0.068399996 -0.055953812 0.0073749423
0.0722 -0.055953812 0.0063992143
0.075999998 -0.055953812 0.0054236054
0.079800002 -0.055953812 0.0044480562
0.0836 -0.055953812 0.003475666
0.087399997 -0.055953812 0.0024999976
0.091200002 -0.055953812 0.0034881234
-0.094999999 -0.05266241 0.0029018521
-0.091200002 -0.05266241 0.0027907491
-0.087399997 -0.05266241 0.0047556162
-0.0836 -0.05266241 0.0037856698
-0.079800002 -0.05266241 0.0028126836
-0.075999998 -0.05266241 0.00086355209
-0.0722 -0.05266241 0.00086981058
-0.068399996 -0.05266241 0.0028345585
-0.064599998 -0.05266241 0.0038200021
-0.060800001 -0.05266241 0.0028470159
-0.057 -0.05266241 0.0038356185
-0.053199999 -0.05266241 0.0028626919
-0.049399998 -0.05266241 0.0018897653
-0.045600001 -0.05266241 0.0028751493
-0.0418 -0.05266241 0.004842937
-0.037999999 -0.05266241 0.0059484243
-0.034199998 -0.05266241 0.0048553944
-0.030400001 -0.05266241 0.0038855672
-0.0266 -0.05266241 0.0049901605
-0.0228 -0.05266241 0.0079366565
-0.018999999 -0.05266241 0.011990964
-0.0152 -0.05266241 0.014937222
-0.0114 -0.05266241 0.018024862
-0.0076000001 -0.05266241 0.019994974
-0.0038000001 -0.05266241 0.01803714
0 -0.05266241 0.017064333
0.0038000001 -0.05266241 0.018052459
0.0076000001 -0.05266241 0.018058598
0.0114 -0.05266241 0.016103864
0.0152 -0.05266241 0.01990062
0.018999999 -0.05266241 0.015985847
0.0228 -0.05266241 0.012068152
0.0266 -0.05266241 0.012074292
0.030400001 -0.05266241 0.016985238
0.034199998 -0.05266241 0.016146839
0.037999999 -0.05266241 0.015171111
0.0418 -0.05266241 0.016159117
0.045600001 -0.05266241 0.015186429
0.049399998 -0.05266241 0.014079392
0.053199999 -0.05266241 0.0061195493
0.057 -0.05266241 0.0051459074
0.060800001 -0.05266241 0.0030751824
0.064599998 -0.05266241 0.0051583648
0.068399996 -0.05266241 0.0071274638
0.0722 -0.05266241 0.0061538219
0.075999998 -0.05266241 0.0061600208
0.079800002 -0.05266241 0.005189538
0.0836 -0.05266241 0.0051957369
0.087399997 -0.05266241 0.0041041374
0.091200002 -0.05266241 0.006188035
-0.094999999 -0.049371012 0.0015813112
-0.091200002 -0.049371012 0.0015844703
-0.087399997 -0.049371012 0.0045259595
-0.0836 -0.049371012 0.0035549402
-0.079800002 -0.049371012 0.0025838017
-0.075999998 -0.049371012 0.0016158223
-0.0722 -0.049371012 0.0016220808
-0.068399996 -0.049371012 0.0035830736
-0.064599998 -0.049371012 0.0045666099
-0.060800001 -0.049371012 0.0045728683
-0.057 -0.049371012 0.0036050081
-0.053199999 -0.049371012 0.0036112666
-0.049399998 -0.049371012 0.0026401877
-0.045600001 -0.049371012 0.0016722679
-0.0418 -0.049371012 0.0026558638
-0.037999999 -0.049371012 0.0046166182
-0.034199998 -0.049371012 0.0046228766
-0.030400001 -0.049371012 0.006583631
-0.0266 -0.049371012 0.0086666346
-0.0228 -0.049371012 0.0096479058
-0.018999999 -0.049371012 0.014671862
-0.0152 -0.049371012 0.020687222
-0.0114 -0.049371012 0.025737822
-0.0076000001 -0.049371012 0.026724994
-0.0038000001 -0.049371012 0.025749981
0 -0.049371012 0.024775088
0.0038000001 -0.049371012 0.024784207
0.0076000001 -0.049371012 0.023809314
0.0114 -0.049371012 0.026619434
0.0152 -0.049371012 0.025645554
0.018999999 -0.049371012 0.022711575
0.0228 -0.049371012 0.017689228
0.0266 -0.049371012 0.019653499
0.030400001 -0.049371012 0.023712933
0.034199998 -0.049371012 0.022880137
0.037999999 -0.049371012 0.022886276
0.0418 -0.049371012 0.022892356
0.045600001 -0.049371012 0.024723351
0.049399998 -0.049371012 0.016759396
0.053199999 -0.049371012 0.004788518
0.057 -0.049371012 0.0038177371
0.060800001 -0.049371012 0.0048010349
0.064599998 -0.049371012 0.0038302541
0.068399996 -0.049371012 0.0038396716
0.0722 -0.049371012 0.0048229098
0.075999998 -0.049371012 0.0048291683
0.079800002 -0.049371012 0.0038615465
0.0836 -0.049371012 0.0028907657
0.087399997 -0.049371012 0.0019199848
0.091200002 -0.049371012 0.0029033422
-0.094999999 -0.04607961 0.0023373961
-0.091200002 -0.04607961 0.0033191442
-0.087399997 -0.04607961 0.004300952
-0.0836 -0.04607961 0.0023562312
-0.079800002 -0.04607961 0.0023625493
-0.075999998 -0.04607961 0.0023719668
-0.0722 -0.04607961 0.0014028549
-0.068399996 -0.04607961 0.0023844838
-0.064599998 -0.04607961 0.0043416619
-0.060800001 -0.04607961 0.0043510795
-0.057 -0.04607961 0.0033818483
-0.053199999 -0.04607961 0.0024127364
-0.049399998 -0.04607961 0.00036561489
-0.045600001 -0.04607961 0.0014531016
-0.0418 -0.04607961 0.0014594197
-0.037999999 -0.04607961 0.0043917894
-0.034199998 -0.04607961 0.0053734183
-0.030400001 -0.04607961 0.0074446797
-0.0266 -0.04607961 0.010379791
-0.0228 -0.04607961 0.014414132
-0.018999999 -0.04607961 0.027124465
-0.0152 -0.04607961 0.031180501
-0.0114 -0.04607961 0.032308638
-0.0076000001 -0.04607961 0.034272969
-0.0038000001 -0.04607961 0.034282029
0 -0.04607961 0.033308923
0.0038000001 -0.04607961 0.034294069
0.0076000001 -0.04607961 0.032344937
0.0114 -0.04607961 0.030392766
0.0152 -0.04607961 0.028443694
0.018999999 -0.04607961 0.030265987
0.0228 -0.04607961 0.024406433
0.0266 -0.04607961 0.028324902
0.030400001 -0.04607961 0.025533915
0.034199998 -0.04607961 0.031414211
0.037999999 -0.04607961 0.033381343
0.0418 -0.04607961 0.03142935
0.045600001 -0.04607961 0.030456364
0.049399998 -0.04607961 0.020543098
0.053199999 -0.04607961 0.0055392385
0.057 -0.04607961 0.0045703053
0.060800001 -0.04607961 0.0045766234
0.064599998 -0.04607961 0.0045828819
0.068399996 -0.04607961 0.0036170483
0.0722 -0.04607961 0.0045985579
0.075999998 -0.04607961 0.0046048164
0.079800002 -0.04607961 0.001688838
0.0836 -0.04607961 0.0026701689
0.087399997 -0.04607961 0.0017014146
0.091200002 -0.04607961 0.0026827455
-0.094999999 -0.042788208 0.0021237731
-0.091200002 -0.042788208 0.0021300912
-0.087399997 -0.042788208 0.0031099319
-0.0836 -0.042788208 0.0010691881
-0.079800002 -0.042788208 0.0031256676
-0.075999998 -0.042788208 0.0021584034
-0.0722 -0.042788208 0.0020607114
-0.068399996 -0.042788208 0.0010976195
-0.064599998 -0.042788208 0.002076447
-0.060800001 -0.042788208 0.0041336417
-0.057 -0.042788208 0.0031664968
-0.053199999 -0.042788208 0.0020985007
-0.049399998 -0.042788208 0.0011322498
-0.045600001 -0.042788208 0.0021110773
-0.0418 -0.042788208 0.003194809
-0.037999999 -0.042788208 0.0061214566
-0.034199998 -0.042788208 0.0080745816
-0.030400001 -0.042788208 0.013064265
-0.0266 -0.042788208 0.015139341
-0.0228 -0.042788208 0.023080885
-0.018999999 -0.042788208 0.028941691
-0.0152 -0.042788208 0.03397119
-0.0114 -0.042788208 0.035931647
-0.0076000001 -0.042788208 0.037061632
-0.0038000001 -0.042788208 0.03609252
0 -0.042788208 0.03609854
0.0038000001 -0.042788208 0.038060904
0.0076000001 -0.042788208 0.03611362
0.0114 -0.042788208 0.035141528
0.0152 -0.042788208 0.036960065
0.018999999 -0.042788208 0.03403461
0.0228 -0.042788208 0.031109214
0.0266 -0.042788208 0.032095432
0.030400001 -0.042788208 0.034055769
0.034199998 -0.042788208 0.035038948
0.037999999 -0.042788208 0.03617084
0.0418 -0.042788208 0.036031187
0.045600001 -0.042788208 0.034082949
0.049399998 -0.042788208 0.022107959
0.053199999 -0.042788208 0.0024006367
0.057 -0.042788208 0.0024069548
0.060800001 -0.042788208 0.0024132133
0.064599998 -0.042788208 0.0024195313
0.068399996 -0.042788208 0.0024289489
0.0722 -0.042788208 0.002435267
0.075999998 -0.042788208 0.0034148097
0.079800002 -0.042788208 0.0034210682
0.0836 -0.042788208 0.0023536086
0.087399997 -0.042788208 0.00041544437
0.091200002 -0.042788208 0.0013939738
-0.094999999 -0.039496809 0.0019177198
-0.091200002 -0.039496809 0.0018238425
-0.087399997 -0.039496809 -0.0010787249
-0.0836 -0.039496809 0.00086903572
-0.079800002 -0.039496809 0.0037872791
-0.075999998 -0.039496809 0.0038957
-0.0722 -0.039496809 0.0028292537
-0.068399996 -0.039496809 -7.3194504e-05
-0.064599998 -0.039496809 -6.6876411e-05
-0.060800001 -0.039496809 0.0028513074
-0.057 -0.039496809 0.0039302707
-0.053199999 -0.039496809 0.001896441
-0.049399998 -0.039496809 0.00093221664
-0.045600001 -0.039496809 0.0019090772
-0.0418 -0.039496809 0.0039585829
-0.037999999 -0.039496809 0.0059079528
-0.034199998 -0.039496809 0.0099099874
-0.030400001 -0.039496809 0.014894962
-0.0266 -0.039496809 0.023662031
-0.0228 -0.039496809 0.028666854
-0.018999999 -0.039496809 0.033683002
-0.0152 -0.039496809 0.036615074
-0.0114 -0.039496809 0.036621094
-0.0076000001 -0.039496809 0.036627114
-0.0038000001 -0.039496809 0.036636174
0 -0.039496809 0.03776139
0.0038000001 -0.039496809 0.03971988
0.0076000001 -0.039496809 0.037632585
0.0114 -0.039496809 0.03778249
0.0152 -0.039496809 0.038764656
0.018999999 -0.039496809 0.037653685
0.0228 -0.039496809 0.034734011
0.0266 -0.039496809 0.035718322
0.030400001 -0.039496809 0.037674785
0.034199998 -0.039496809 0.03475517
0.037999999 -0.039496809 0.03476423
0.0418 -0.039496809 0.035745502
0.045600001 -0.039496809 0.03477633
0.049399998 -0.039496809 0.018936872
0.053199999 -0.039496809 0.0011249781
0.057 -0.039496809 0.0011312962
0.060800001 -0.039496809 0.0021079183
0.064599998 -0.039496809 0.0021173954
0.068399996 -0.039496809 0.0011534095
0.0722 -0.039496809 0.0021300316
0.075999998 -0.039496809 0.0051501393
0.079800002 -0.039496809 0.0051595569
0.0836 -0.039496809 0.0011818409
0.087399997 -0.039496809 0.00021785498
0.091200002 -0.039496809 0.0011944771
-0.094999999 -0.036205407 0.00065732002
-0.091200002 -0.036205407 -0.0012738705
-0.087399997 -0.036205407 -0.0022363067
-0.0836 -0.036205407 0.0006763339
-0.079800002 -0.036205407 0.0045577288
-0.075999998 -0.036205407 0.0035952926
-0.0722 -0.036205407 0.00069850683
-0.068399996 -0.036205407 0.00070482492
-0.064599998 -0.036205407 0.0036173463
-0.060800001 -0.036205407 0.0036236644
-0.057 -0.036205407 0.0036331415
-0.053199999 -0.036205407 0.0026708245
-0.049399998 -0.036205407 0.00073969364
-0.045600001 -0.036205407 0.001714766
-0.0418 -0.036205407 0.0026929379
-0.037999999 -0.036205407 0.0057021976
-0.034199998 -0.036205407 0.013575137
-0.030400001 -0.036205407 0.025351226
-0.0266 -0.036205407 0.028399646
-0.0228 -0.036205407 0.032292604
-0.018999999 -0.036205407 0.037302256
-0.0152 -0.036205407 0.038281739
-0.0114 -0.036205407 0.036340952
-0.0076000001 -0.036205407 0.037323415
-0.0038000001 -0.036205407 0.037329435
0 -0.036205407 0.037335515
0.0038000001 -0.036205407 0.037344575
0.0076000001 -0.036205407 0.036377251
0.0114 -0.036205407 0.037356675
0.0152 -0.036205407 0.035418987
0.018999999 -0.036205407 0.036398411
0.0228 -0.036205407 0.034457803
0.0266 -0.036205407 0.035440207
0.030400001 -0.036205407 0.03641957
0.034199998 -0.036205407 0.034479022
0.037999999 -0.036205407 0.034488082
0.0418 -0.036205407 0.035467446
0.045600001 -0.036205407 0.032423437
0.049399998 -0.036205407 0.023555815
0.053199999 -0.036205407 0.0019013882
0.057 -0.036205407 0.00093919039
0.060800001 -0.036205407 0.0028825402
0.064599998 -0.036205407 0.0028920174
0.068399996 -0.036205407 0.0038667321
0.0722 -0.036205407 0.0048415065
0.075999998 -0.036205407 0.0049466491
0.079800002 -0.036205407 0.0059224367
0.0836 -0.036205407 0.0029267669
0.087399997 -0.036205407 0.00099617243
0.091200002 -0.036205407 0.0019710064
-0.094999999 -0.032914009 0.0024060607
-0.091200002 -0.032914009 -0.0015428662
-0.087399997 -0.032914009 -0.0015364885
-0.0836 -0.032914009 0.0014582276
-0.079800002 -0.032914009 0.0033982992
-0.075999998 -0.032914009 0.0014740825
-0.0722 -0.032914009 0.00051361322
-0.068399996 -0.032914009 0.0024535656
-0.064599998 -0.032914009 0.0063272119
-0.060800001 -0.032914009 0.0053667426
-0.057 -0.032914009 0.0044094324
-0.053199999 -0.032914009 0.0044157505
-0.049399998 -0.032914009 0.0034552813
-0.045600001 -0.032914009 0.0034615993
-0.0418 -0.032914009 0.0054045916
-0.037999999 -0.032914009 0.0074394941
-0.034199998 -0.032914009 0.012495875
-0.030400001 -0.032914009 0.027043402
-0.0266 -0.032914009 0.030084193
-0.0228 -0.032914009 0.035075665
-0.018999999 -0.032914009 0.037996292
-0.0152 -0.032914009 0.038976848
-0.0114 -0.032914009 0.037039876
-0.0076000001 -0.032914009 0.036077499
-0.0038000001 -0.032914009 0.036083579
0 -0.032914009 0.036089599
0.0038000001 -0.032914009 0.037070155
0.0076000001 -0.032914009 0.038047731
0.0114 -0.032914009 0.037082314
0.0152 -0.032914009 0.036119938
0.018999999 -0.032914009 0.036126018
0.0228 -0.032914009 0.035160661
0.0266 -0.032914009 0.036141157
0.030400001 -0.032914009 0.036147237
0.034199998 -0.032914009 0.034082115
0.037999999 -0.032914009 0.036162376
0.0418 -0.032914009 0.037139833
0.045600001 -0.032914009 0.032162607
0.049399998 -0.032914009 0.024285495
0.053199999 -0.032914009 0.0036482215
0.057 -0.032914009 0.0017213225
0.060800001 -0.032914009 0.0026942492
0.064599998 -0.032914009 0.0036703944
0.068399996 -0.032914009 0.0036767125
0.0722 -0.032914009 0.0046495795
0.075999998 -0.032914009 0.0056223869
0.079800002 -0.032914009 0.0046622157
0.0836 -0.032914009 0.0046716928
0.087399997 -0.032914009 0.0017784238
0.091200002 -0.032914009 0.0017847419
-0.094999999 -0.029622607 0.001259923
-0.091200002 -0.029622607 0.00030130148
-0.087399997 -0.029622607 0.00030767918
-0.0836 -0.029622607 0.0012789965
-0.079800002 -0.029622607 0.0022503138
-0.075999998 -0.029622607 0.0022598505
-0.0722 -0.029622607 0.0022661686
-0.068399996 -0.029622607 0.0032374263
-0.064599998 -0.029622607 0.0061385632
-0.060800001 -0.029622607 0.0032532811
-0.057 -0.029622607 0.0022947192
-0.053199999 -0.029622607 0.0032659173
-0.049399998 -0.029622607 0.003272295
-0.045600001 -0.029622607 0.0032817721
-0.0418 -0.029622607 0.0061796308
-0.037999999 -0.029622607 0.014971673
-0.034199998 -0.029622607 0.024632931
-0.030400001 -0.029622607 0.029706419
-0.0266 -0.029622607 0.033709228
-0.0228 -0.029622607 0.036621213
-0.018999999 -0.029622607 0.038700163
-0.0152 -0.029622607 0.038706243
-0.0114 -0.029622607 0.037742674
-0.0076000001 -0.029622607 0.036651611
-0.0038000001 -0.029622607 0.035689116
0 -0.029622607 0.035695195
0.0038000001 -0.029622607 0.037773013
0.0076000001 -0.029622607 0.037779093
0.0114 -0.029622607 0.037785113
0.0152 -0.029622607 0.037794232
0.018999999 -0.029622607 0.036700249
0.0228 -0.029622607 0.035740852
0.0266 -0.029622607 0.036715448
0.030400001 -0.029622607 0.036721528
0.034199998 -0.029622607 0.035762131
0.037999999 -0.029622607 0.036736727
0.0418 -0.029622607 0.037842751
0.045600001 -0.029622607 0.032877922
0.049399998 -0.029622607 0.021037459
0.053199999 -0.029622607 0.0053951144
0.057 -0.029622607 0.0034720302
0.060800001 -0.029622607 0.0025137663
0.064599998 -0.029622607 0.003487885
0.068399996 -0.029622607 0.0025296211
0.0722 -0.029622607 0.0015712976
0.075999998 -0.029622607 0.0025423169
0.079800002 -0.029622607 0.003516376
0.0836 -0.029622607 0.0035227537
0.087399997 -0.029622607 0.0015999079
0.091200002 -0.029622607 -0.00032299757
-0.094999999 -0.026331205 0.0020513535
-0.091200002 -0.026331205 0.0020577312
-0.087399997 -0.026331205 0.0020640492
-0.0836 -0.026331205 0.003996551
-0.079800002 -0.026331205 0.0040060282
-0.075999998 -0.026331205 0.0020863414
-0.0722 -0.026331205 0.0011296272
-0.068399996 -0.026331205 9.4234943e-05
-0.064599998 -0.026331205 0.0040314198
-0.060800001 -0.026331205 0.0040409565
-0.057 -0.026331205 0.0040473342
-0.053199999 -0.026331205 0.0030906796
-0.049399998 -0.026331205 0.0031002164
-0.045600001 -0.026331205 0.0050324202
-0.0418 -0.026331205 0.0088874698
-0.037999999 -0.026331205 0.02162379
-0.034199998 -0.026331205 0.027533472
-0.030400001 -0.026331205 0.03151989
-0.0266 -0.026331205 0.036359787
-0.0228 -0.026331205 0.037335694
-0.018999999 -0.026331205 0.038308442
-0.0152 -0.026331205 0.037347853
-0.0114 -0.026331205 0.039287388
-0.0076000001 -0.026331205 0.03832972
-0.0038000001 -0.026331205 0.037369192
0 -0.026331205 0.037378311
0.0038000001 -0.026331205 0.038350999
0.0076000001 -0.026331205 0.038357079
0.0114 -0.026331205 0.038491786
0.0152 -0.026331205 0.039339006
0.018999999 -0.026331205 0.038378358
0.0228 -0.026331205 0.036454201
0.0266 -0.026331205 0.03646034
0.030400001 -0.026331205 0.037433028
0.034199998 -0.026331205 0.037442148
0.037999999 -0.026331205 0.037448287
0.0418 -0.026331205 0.037454367
0.045600001 -0.026331205 0.030578315
0.049399998 -0.026331205 0.019855797
0.053199999 -0.026331205 0.0042536259
0.057 -0.026331205 0.004259944
0.060800001 -0.026331205 0.0033035278
0.064599998 -0.026331205 0.005238533
0.068399996 -0.026331205 0.0042821765
0.0722 -0.026331205 0.0033257604
0.075999998 -0.026331205 0.0033321381
0.079800002 -0.026331205 0.0033416748
0.0836 -0.026331205 0.0033480525
0.087399997 -0.026331205 0.002391696
0.091200002 -0.026331205 0.00039106607
-0.094999999 -0.023039805 0.0027686954
-0.091200002 -0.023039805 0.0028528571
-0.087399997 -0.023039805 0.0028592348
-0.0836 -0.023039805 0.000867486
-0.079800002 -0.023039805 0.0018340349
-0.075999998 -0.023039805 0.0018404126
-0.0722 -0.023039805 0.00088983774
-0.068399996 -0.023039805 0.00089621544
-0.064599998 -0.023039805 0.0029038191
-0.060800001 -0.023039805 0.0038713813
-0.057 -0.023039805 0.0038776994
-0.053199999 -0.023039805 0.0029229522
-0.049399998 -0.023039805 0.0029324889
-0.045600001 -0.023039805 0.0067830682
-0.0418 -0.023039805 0.010720968
-0.037999999 -0.023039805 0.022375166
-0.034199998 -0.023039805 0.028267503
-0.030400001 -0.023039805 0.03321135
-0.0266 -0.023039805 0.03611201
-0.0228 -0.023039805 0.03805089
-0.018999999 -0.023039805 0.037092149
-0.0152 -0.023039805 0.037098229
-0.0114 -0.023039805 0.039036989
-0.0076000001 -0.023039805 0.04000783
-0.0038000001 -0.023039805 0.039049149
0 -0.023039805 0.038093507
0.0038000001 -0.023039805 0.039064348
0.0076000001 -0.023039805 0.039070487
0.0114 -0.023039805 0.037150085
0.0152 -0.023039805 0.038120925
0.018999999 -0.023039805 0.038127005
0.0228 -0.023039805 0.036206663
0.0266 -0.023039805 0.036212742
0.030400001 -0.023039805 0.037183583
0.034199998 -0.023039805 0.037192762
0.037999999 -0.023039805 0.03623414
0.0418 -0.023039805 0.03624028
0.045600001 -0.023039805 0.032273591
0.049399998 -0.023039805 0.024462402
0.053199999 -0.023039805 0.0040844679
0.057 -0.023039805 0.0031298995
0.060800001 -0.023039805 0.0031362772
0.064599998 -0.023039805 0.0041067004
0.068399996 -0.023039805 0.005073905
0.0722 -0.023039805 0.0050802827
0.075999998 -0.023039805 0.0050866008
0.079800002 -0.023039805 0.0041353703
0.0836 -0.023039805 0.004141748
0.087399997 -0.023039805 0.0031872392
0.091200002 -0.023039805 0.0022328496
-0.094999999 -0.019748405 0.0035706162
-0.091200002 -0.019748405 0.0045320988
-0.087399997 -0.019748405 0.0026251078
-0.0836 -0.019748405 0.00071495771
-0.079800002 -0.019748405 0.00072133541
-0.075999998 -0.019748405 0.0016859174
-0.0722 -0.019748405 0.0026538372
-0.068399996 -0.019748405 0.0027374029
-0.064599998 -0.019748405 0.0037029982
-0.060800001 -0.019748405 0.0037093759
-0.057 -0.019748405 0.0036376119
-0.053199999 -0.019748405 0.0036472082
-0.049399998 -0.019748405 0.0036535859
-0.045600001 -0.019748405 0.0066155195
-0.0418 -0.019748405 0.014382362
-0.037999999 -0.019748405 0.026013613
-0.034199998 -0.019748405 0.029970467
-0.030400001 -0.019748405 0.034786582
-0.0266 -0.019748405 0.037797749
-0.0228 -0.019748405 0.038769841
-0.018999999 -0.019748405 0.037813008
-0.0152 -0.019748405 0.037819147
-0.0114 -0.019748405 0.03879118
-0.0076000001 -0.019748405 0.040723085
-0.0038000001 -0.019748405 0.040729165
0 -0.019748405 0.038812578
0.0038000001 -0.019748405 0.039781511
0.0076000001 -0.019748405 0.040750504
0.0114 -0.019748405 0.037871063
0.0152 -0.019748405 0.038839996
0.018999999 -0.019748405 0.039808929
0.0228 -0.019748405 0.037892401
0.0266 -0.019748405 0.03789854
0.030400001 -0.019748405 0.036941826
0.034199998 -0.019748405 0.036951005
0.037999999 -0.019748405 0.036957085
0.0418 -0.019748405 0.036000431
0.045600001 -0.019748405 0.030121565
0.049399998 -0.019748405 0.0058344603
0.053199999 -0.019748405 0.0029639602
0.057 -0.019748405 0.0029703975
0.060800001 -0.019748405 0.0038577914
0.064599998 -0.019748405 0.00099349022
0.068399996 -0.019748405 0.0019577742
0.0722 -0.019748405 0.0019641519
0.075999998 -0.019748405 0.002928555
0.079800002 -0.019748405 0.0049327612
0.0836 -0.019748405 0.005898118
0.087399997 -0.019748405 0.0039867163
0.091200002 -0.019748405 0.0030341744
-0.094999999 -0.016457004 0.0015072227
-0.091200002 -0.016457004 0.00055724382
-0.087399997 -0.016457004 0.0024763942
-0.0836 -0.016457004 0.0024827719
-0.079800002 -0.016457004 0.0015328526
-0.075999998 -0.016457004 0.001542449
-0.0722 -0.016457004 0.0025051832
-0.068399996 -0.016457004 0.0054568052
-0.064599998 -0.016457004 0.0054631829
-0.060800001 -0.016457004 0.0034806728
-0.057 -0.016457004 0.0025339723
-0.053199999 -0.016457004 0.0034966469
-0.049399998 -0.016457004 0.0015905499
-0.045600001 -0.016457004 0.0015969276
-0.0418 -0.016457004 0.019952416
-0.037999999 -0.016457004 0.028685212
-0.034199998 -0.016457004 0.032633483
-0.030400001 -0.016457004 0.03647995
-0.0266 -0.016457004 0.038525522
-0.0228 -0.016457004 0.039492667
-0.018999999 -0.016457004 0.0385378
-0.0152 -0.016457004 0.03363049
-0.0114 -0.016457004 0.032676578
-0.0076000001 -0.016457004 0.04048115
-0.0038000001 -0.016457004 0.041448236
0 -0.016457004 0.040496409
0.0038000001 -0.016457004 0.040502489
0.0076000001 -0.016457004 0.040508568
0.0114 -0.016457004 0.038595855
0.0152 -0.016457004 0.039562881
0.018999999 -0.016457004 0.040529907
0.0228 -0.016457004 0.03957814
0.0266 -0.016457004 0.038623333
0.030400001 -0.016457004 0.038629472
0.034199998 -0.016457004 0.038638651
0.037999999 -0.016457004 0.036608756
0.0418 -0.016457004 0.034695029
0.045600001 -0.016457004 0.027881145
0.049399998 -0.016457004 0.018205464
0.053199999 -0.016457004 0.0036949515
0.057 -0.016457004 0.0046574473
0.060800001 -0.016457004 0.0037818551
0.064599998 -0.016457004 0.0018052459
0.068399996 -0.016457004 0.0018116832
0.0722 -0.016457004 0.0027741194
0.075999998 -0.016457004 0.003736496
0.079800002 -0.016457004 0.0057341456
0.0836 -0.016457004 0.0057405233
0.087399997 -0.016457004 0.0028029084
0.091200002 -0.016457004 0.0018533468
-0.094999999 -0.013165602 0.00041347742
-0.091200002 -0.013165602 0.00041991472
-0.087399997 -0.013165602 0.0032897592
-0.0836 -0.013165602 0.004250586
-0.079800002 -0.013165602 0.0033025742
-0.075999998 -0.013165602 0.0014033318
-0.0722 -0.013165602 0.0023641586
-0.068399996 -0.013165602 0.0042794347
-0.064599998 -0.013165602 0.0033314228
-0.060800001 -0.013165602 0.0023866296
-0.057 -0.013165602 0.0023930669
-0.053199999 -0.013165602 0.0023994446
-0.049399998 -0.013165602 0.00049710274
-0.045600001 -0.013165602 -0.00044763088
-0.0418 -0.013165602 0.0024186969
-0.037999999 -0.013165602 0.029540479
-0.034199998 -0.013165602 0.035292685
-0.030400001 -0.013165602 0.037215173
-0.0266 -0.013165602 0.038182557
-0.0228 -0.013165602 0.039260209
-0.018999999 -0.013165602 0.039266288
-0.0152 -0.013165602 -0.0071278214
-0.0114 -0.013165602 0.031509399
-0.0076000001 -0.013165602 0.031512499
-0.0038000001 -0.013165602 0.029602408
0 -0.013165602 0.02759552
0.0038000001 -0.013165602 0.03249222
0.0076000001 -0.013165602 0.034414589
0.0114 -0.013165602 0.033462644
0.0152 -0.013165602 0.030594587
0.018999999 -0.013165602 0.024758399
0.0228 -0.013165602 0.03156811
0.0266 -0.013165602 0.032532334
0.030400001 -0.013165602 0.03732878
0.034199998 -0.013165602 0.038408279
0.037999999 -0.013165602 0.038302124
0.0418 -0.013165602 0.035434186
0.045600001 -0.013165602 0.029593647
0.049399998 -0.013165602 0.0074369907
0.053199999 -0.013165602 0.0045067668
0.057 -0.013165602 0.0064945817
0.060800001 -0.013165602 0.0065009594
0.064599998 -0.013165602 0.003575027
0.068399996 -0.013165602 0.0026272535
0.0722 -0.013165602 0.003587842
0.075999998 -0.013165602 0.0045483708
0.079800002 -0.013165602 0.0045579672
0.0836 -0.013165602 0.0026561618
0.087399997 -0.013165602 0.0017084479
0.091200002 -0.013165602 0.0017148852
-0.094999999 -0.0098742023 0.0012396574
-0.091200002 -0.0098742023 0.0012428761
-0.087399997 -0.0098742023 0.0041069388
-0.0836 -0.0098742023 0.0041133761
-0.079800002 -0.0098742023 0.0022179484
-0.075999998 -0.0098742023 0.003176868
-0.0722 -0.0098742023 0.0050883293
-0.068399996 -0.0098742023 0.0050947666
-0.064599998 -0.0098742023 0.0022468567
-0.060800001 -0.0098742023 0.0013008118
-0.057 -0.0098742023 0.0013072491
-0.053199999 -0.0098742023 0.0022661686
-0.049399998 -0.0098742023 0.0013201237
-0.045600001 -0.0098742023 -0.0015276074
-0.0418 -0.0098742023 0.0051460266
-0.037999999 -0.0098742023 0.034122944
-0.034199998 -0.0098742023 0.035082281
-0.030400001 -0.0098742023 0.036997914
-0.0266 -0.0098742023 0.038919687
-0.0228 -0.0098742023 0.038925827
-0.018999999 -0.0098742023 0.037022531
-0.0152 -0.0098742023 -0.0062866211
-0.0114 -0.0098742023 -0.0062866211
-0.0076000001 -0.0098742023 0.026433647
-0.0038000001 -0.0098742023 0.027392089
0 -0.0098742023 0.03026396
0.0038000001 -0.0098742023 0.037065625
0.0076000001 -0.0098742023 0.041849613
0.0114 -0.0098742023 0.039099753
0.0152 -0.0098742023 0.039952576
0.018999999 -0.0098742023 0.024758399
0.0228 -0.0098742023 0.03156811
0.0266 -0.0098742023 0.028406382
0.030400001 -0.0098742023 0.036158741
0.034199998 -0.0098742023 0.038077116
0.037999999 -0.0098742023 0.037127137
0.0418 -0.0098742023 0.036177218
0.045600001 -0.0098742023 0.032261193
0.049399998 -0.0098742023 0.0072907209
0.053199999 -0.0098742023 0.006274581
0.057 -0.0098742023 0.0053287148
0.060800001 -0.0098742023 0.0053351521
0.064599998 -0.0098742023 0.0034402609
0.068399996 -0.0098742023 0.0034466982
0.0722 -0.0098742023 0.0034530759
0.075999998 -0.0098742023 0.004411757
0.079800002 -0.0098742023 0.0034691691
0.0836 -0.0098742023 0.0044277906
0.087399997 -0.0098742023 0.0034820437
0.091200002 -0.0098742023 0.0034884214
-0.094999999 -0.0065828012 0.0020663738
-0.091200002 -0.0065828012 0.003020227
-0.087399997 -0.0065828012 0.0058786273
-0.0836 -0.0065828012 0.0030363202
-0.079800002 -0.0065828012 0.003993392
-0.075999998 -0.0065828012 0.0049504638
-0.0722 -0.0065828012 0.0040062666
-0.068399996 -0.0065828012 0.0040127039
-0.064599998 -0.0065828012 0.0030717254
-0.060800001 -0.0065828012 0.0030781627
-0.057 -0.0065828012 0.0021340251
-0.053199999 -0.0065828012 0.0011898875
-0.049399998 -0.0065828012 0.0031006932
-0.045600001 -0.0065828012 -0.00069504976
-0.0418 -0.0065828012 0.005014658
-0.037999999 -0.0065828012 0.0060309172
-0.034199998 -0.0065828012 0.033826172
-0.030400001 -0.0065828012 0.038700104
-0.0266 -0.0065828012 0.038706243
-0.0228 -0.0065828012 0.038712442
-0.018999999 -0.0065828012 0.038721621
-0.0152 -0.0065828012 -0.010189295
-0.0114 -0.0065828012 -0.0072903633
-0.0076000001 -0.0065828012 0.030062377
-0.0038000001 -0.0065828012 0.035785496
0 -0.0065828012 0.035892606
0.0038000001 -0.0065828012 0.040670216
0.0076000001 -0.0065828012 0.043649614
0.0114 -0.0065828012 0.039731324
0.0152 -0.0065828012 0.029149592
0.018999999 -0.0065828012 0.029149592
0.0228 -0.0065828012 0.028218031
0.0266 -0.0065828012 0.028218031
0.030400001 -0.0065828012 0.036905527
0.034199998 -0.0065828012 0.037865877
0.037999999 -0.0065828012 0.037872016
0.0418 -0.0065828012 0.037878215
0.045600001 -0.0065828012 0.030158818
0.049399998 -0.0065828012 0.0070856214
0.053199999 -0.0065828012 0.0051913261
0.057 -0.0065828012 0.004247427
0.060800001 -0.0065828012 0.0033034682
0.064599998 -0.0065828012 0.0023627877
0.068399996 -0.0065828012 0.0033195615
0.0722 -0.0065828012 0.0033259988
0.075999998 -0.0065828012 0.0033324361
0.079800002 -0.0065828012 0.003342092
0.0836 -0.0065828012 0.0052491426
0.087399997 -0.0065828012 0.0043053031
0.091200002 -0.0065828012 0.0043117404
-0.094999999 -0.0032914006 0.00094413757
-0.091200002 -0.0032914006 0.0029001236
-0.087399997 -0.0032914006 0.0057528019
-0.0836 -0.0032914006 0.0057624578
-0.079800002 -0.0032914006 0.0057688355
-0.075999998 -0.0032914006 0.0057752728
-0.0722 -0.0032914006 0.0038843155
-0.068399996 -0.0032914006 0.0038939714
-0.064599998 -0.0032914006 0.0039004087
-0.060800001 -0.0032914006 0.0029581785
-0.057 -0.0032914006 0.0020160079
-0.053199999 -0.0032914006 0.0010769963
-0.049399998 -0.0032914006 0.0029807687
-0.045600001 -0.0032914006 0.0010899305
-0.0418 -0.0032914006 9.3579292e-05
-0.037999999 -0.0032914006 0.005014658
-0.034199998 -0.0032914006 0.03268224
-0.030400001 -0.0032914006 0.035636961
-0.0266 -0.0032914006 0.037548065
-0.0228 -0.0032914006 0.038506627
-0.018999999 -0.0032914006 0.037563503
-0.0152 -0.0032914006 0.025967479
-0.0114 -0.0032914006 0.021154881
-0.0076000001 -0.0032914006 0.021154881
-0.0038000001 -0.0032914006 0.037591279
0 -0.0032914006 0.044264138
0.0038000001 -0.0032914006 0.04533118
0.0076000001 -0.0032914006 0.04237473
0.0114 -0.0032914006 0.031811655
0.0152 -0.0032914006 0.030869663
0.018999999 -0.0032914006 0.030869663
0.0228 -0.0032914006 0.026999474
0.0266 -0.0032914006 0.02708596
0.030400001 -0.0032914006 0.036703765
0.034199998 -0.0032914006 0.037662327
0.037999999 -0.0032914006 0.037668467
0.0418 -0.0032914006 0.032822132
0.045600001 -0.0032914006 0.027120411
0.049399998 -0.0032914006 0.0069584846
0.053199999 -0.0032914006 0.0060164332
0.057 -0.0032914006 0.0041260123
0.060800001 -0.0032914006 0.0041356683
0.064599998 -0.0032914006 0.0041421056
0.068399996 -0.0032914006 0.0022516847
0.0722 -0.0032914006 0.0032065511
0.075999998 -0.0032914006 0.003213048
0.079800002 -0.0032914006 0.0022743344
0.0836 -0.0032914006 0.0051259398
0.087399997 -0.0032914006 0.0051323771
0.091200002 -0.0032914006 0.0051388144
-0.094999999 -1.3877788e-17 0.00089079142
-0.091200002 -1.3877788e-17 0.0037377477
-0.087399997 -1.3877788e-17 0.003744185
-0.0836 -1.3877788e-17 0.0037506819
-0.079800002 -1.3877788e-17 0.004703939
-0.075999998 -1.3877788e-17 0.0037635565
-0.0722 -1.3877788e-17 0.0047200322
-0.068399996 -1.3877788e-17 0.0056700706
-0.064599998 -1.3877788e-17 0.0037862062
-0.060800001 -1.3877788e-17 0.0018991232
-0.057 -1.3877788e-17 0.0028523207
-0.053199999 -1.3877788e-17 0.0019152761
-0.049399998 -1.3877788e-17 0.0028684735
-0.045600001 -1.3877788e-17 0.00098150969
-0.0418 -1.3877788e-17 -0.0028464794
-0.037999999 -1.3877788e-17 -0.0047752261
-0.034199998 -1.3877788e-17 0.033448935
-0.030400001 -1.3877788e-17 0.036300898
-0.0266 -1.3877788e-17 0.038302362
-0.0228 -1.3877788e-17 0.037265897
-0.018999999 -1.3877788e-17 0.036322594
-0.0152 -1.3877788e-17 0.028647661
-0.0114 -1.3877788e-17 0.017212212
-0.0076000001 -1.3877788e-17 0.017212212
-0.0038000001 -1.3877788e-17 0.018166184
0 -1.3877788e-17 0.043104172
0.0038000001 -1.3877788e-17 0.047018826
0.0076000001 -1.3877788e-17 0.040268183
0.0114 -1.3877788e-17 0.038277328
0.0152 -1.3877788e-17 0.037334025
0.018999999 -1.3877788e-17 0.030779243
0.0228 -1.3877788e-17 0.027780533
0.0266 -1.3877788e-17 0.027780533
0.030400001 -1.3877788e-17 0.036415637
0.034199998 -1.3877788e-17 0.037371218
0.037999999 -1.3877788e-17 0.035478532
0.0418 -1.3877788e-17 0.032639623
0.045600001 -1.3877788e-17 0.026866555
0.049399998 -1.3877788e-17 0.005892396
0.053199999 -1.3877788e-17 0.0058988333
0.057 -1.3877788e-17 0.0040122271
0.060800001 -1.3877788e-17 0.0059149861
0.064599998 -1.3877788e-17 0.0059214234
0.068399996 -1.3877788e-17 0.0011953115
0.0722 -1.3877788e-17 0.0021482706
0.075999998 -1.3877788e-17 0.0021547675
0.079800002 -1.3877788e-17 0.0021644831
0.0836 -1.3877788e-17 0.0040639043
0.087399997 -1.3877788e-17 0.0050168037
0.091200002 -1.3877788e-17 0.0050233006
-0.094999999 0.0032914006 0.00074213743
-0.091200002 0.0032914006 0.0017411709
-0.087399997 0.0032914006 0.0017476678
-0.0836 0.0032914006 0.0026990771
-0.079800002 0.0032914006 0.0027055144
-0.075999998 0.0032914006 0.00271523
-0.0722 0.0032914006 0.0036665797
-0.068399996 0.0032914006 0.0055628419
-0.064599998 0.0032914006 0.0036795735
-0.060800001 0.0032914006 0.002741158
-0.057 0.0032914006 0.0027508736
-0.053199999 0.0032914006 0.0027573705
-0.049399998 0.0032914006 0.0037086606
-0.045600001 0.0032914006 0.0027703047
-0.0418 0.0032914006 -0.0029326081
-0.037999999 0.0032914006 -0.0029260516
-0.034199998 0.0032914006 0.031376481
-0.030400001 0.0032914006 0.033274949
-0.0266 0.0032914006 0.038019538
-0.0228 0.0032914006 0.038976431
-0.018999999 0.0032914006 0.035192072
-0.0152 0.0032914006 0.024697125
-0.0114 0.0032914006 0.017075241
-0.0076000001 0.0032914006 0.017075241
-0.0038000001 0.0032914006 0.018027365
0 0.0032914006 0.025675356
0.0038000001 0.0032914006 0.041961849
0.0076000001 0.0032914006 0.041022539
0.0114 0.0032914006 0.039131641
0.0152 0.0032914006 0.030436814
0.018999999 0.0032914006 0.030436814
0.0228 0.0032914006 0.02864635
0.0266 0.0032914006 0.02864635
0.030400001 0.0032914006 0.038128078
0.034199998 0.0032914006 0.038134277
0.037999999 0.0032914006 0.036245406
0.0418 0.0032914006 0.034359753
0.045600001 0.0032914006 0.027653515
0.049399998 0.0032914006 0.0057824254
0.053199999 0.0032914006 0.0038996339
0.057 0.0032914006 0.0039060712
0.060800001 0.0032914006 0.0058050156
0.064599998 0.0032914006 0.0048668981
0.068399996 0.0032914006 0.0020395517
0.0722 0.0032914006 0.0020460486
0.075999998 0.0032914006 0.0020524859
0.079800002 0.0032914006 0.0030068159
0.0836 0.0032914006 0.0039578676
0.087399997 0.0032914006 0.0049088597
0.091200002 0.0032914006 0.0039708018
-0.094999999 0.0065828012 0.00065582991
-0.091200002 0.0065828012 0.00065910816
-0.087399997 0.0065828012 0.0016524196
-0.0836 0.0065828012 -0.00026661158
-0.079800002 0.0065828012 0.0026116371
-0.075999998 0.0065828012 0.0045040846
-0.0722 0.0065828012 0.0035675764
-0.068399996 0.0065828012 0.0035740733
-0.064599998 0.0065828012 0.0035805702
-0.060800001 0.0065828012 0.0026473403
-0.057 0.0065828012 0.0026538372
-0.053199999 0.0065828012 0.0036032796
-0.049399998 0.0065828012 0.0045526624
-0.045600001 0.0065828012 0.0036162734
-0.0418 0.0065828012 -0.00018835068
-0.037999999 0.0065828012 -0.00300771
-0.034199998 0.0065828012 0.033105433
-0.030400001 0.0065828012 0.035945892
-0.0266 0.0065828012 0.037840426
-0.0228 0.0065828012 0.039741337
-0.018999999 0.0065828012 0.035018802
-0.0152 0.0065828012 0.023536682
-0.0114 0.0065828012 0.030152917
-0.0076000001 0.0065828012 0.02362299
-0.0038000001 0.0065828012 0.024574041
0 0.0065828012 0.024580359
0.0038000001 0.0065828012 0.031199753
0.0076000001 0.0065828012 0.034123003
0.0114 0.0065828012 0.033186674
0.0152 0.0065828012 0.03035593
0.018999999 0.0065828012 0.030283272
0.0228 0.0065828012 0.032100022
0.0266 0.0065828012 0.032269239
0.030400001 0.0065828012 0.038894892
0.034199998 0.0065828012 0.038901091
0.037999999 0.0065828012 0.037961662
0.0418 0.0065828012 0.035134137
0.045600001 0.0065828012 0.027499557
0.049399998 0.0065828012 0.0066227913
0.053199999 0.0065828012 0.0047438145
0.057 0.0065828012 0.0038076043
0.060800001 0.0065828012 0.0047600269
0.064599998 0.0065828012 0.0038238168
0.068399996 0.0065828012 0.0038302541
0.0722 0.0065828012 0.003836751
0.075999998 0.0065828012 0.0029006004
0.079800002 0.0065828012 0.0038529634
0.0836 0.0065828012 0.0038594604
0.087399997 0.0065828012 0.0048086047
0.091200002 0.0065828012 0.0038724542
-0.094999999 0.0098742023 0.0015141368
-0.091200002 0.0098742023 0.0015582442
-0.087399997 0.0098742023 0.0025058985
-0.0836 0.0098742023 0.0015336871
-0.079800002 0.0098742023 0.0034632087
-0.075999998 0.0098742023 0.0044108033
-0.0722 0.0098742023 0.0025351644
-0.068399996 0.0098742023 0.0025416613
-0.064599998 0.0098742023 0.0034891963
-0.060800001 0.0098742023 0.0034989715
-0.057 0.0098742023 0.0025644302
-0.053199999 0.0098742023 0.0025709271
-0.049399998 0.0098742023 0.0044595003
-0.045600001 0.0098742023 0.0044659972
-0.0418 0.0098742023 0.001611948
-0.037999999 0.0098742023 -0.0040218234
-0.034199998 0.0098742023 -0.0021703243
-0.030400001 0.0098742023 0.036722064
-0.0266 0.0098742023 0.039559841
-0.0228 0.0098742023 0.04050988
-0.018999999 0.0098742023 0.037684679
-0.0152 0.0098742023 0.02723968
-0.0114 0.0098742023 0.031020582
-0.0076000001 0.0098742023 0.031966507
-0.0038000001 0.0098742023 0.032052994
0 0.0098742023 0.032925069
0.0038000001 0.0098742023 0.03300941
0.0076000001 0.0098742023 0.033015668
0.0114 0.0098742023 0.033968806
0.0152 0.0098742023 0.033975065
0.018999999 0.0098742023 0.033037603
0.0228 0.0098742023 0.033046961
0.0266 0.0098742023 0.036828101
0.030400001 0.0098742023 0.037778139
0.034199998 0.0098742023 0.036840618
0.037999999 0.0098742023 0.035906255
0.0418 0.0098742023 0.033081412
0.045600001 0.0098742023 0.025467873
0.049399998 0.0098742023 0.0074669719
0.053199999 0.0098742023 0.0055918097
0.057 0.0098742023 0.0037167072
0.060800001 0.0098742023 0.0037264824
0.064599998 0.0098742023 0.0037329793
0.068399996 0.0098742023 0.0037394762
0.0722 0.0098742023 0.0037459731
0.075999998 0.0098742023 0.0018709302
0.079800002 0.0098742023 0.0028214455
0.0836 0.0098742023 0.0047094822
0.087399997 0.0098742023 0.0047159791
0.091200002 0.0098742023 0.0037817359
-0.094999999 0.013165602 0.0014378428
-0.091200002 0.013165602 0.0024175048
-0.087399997 0.013165602 0.0043056011
-0.0836 0.013165602 0.004312098
-0.079800002 0.013165602 0.0043185949
-0.075999998 0.013165602 0.0033859611
-0.0722 0.013165602 0.0024533868
-0.068399996 0.013165602 0.0034022331
-0.064599998 0.013165602 0.0043479204
-0.060800001 0.013165602 0.0043544173
-0.057 0.013165602 0.0024827123
-0.053199999 0.013165602 0.0024511814
-0.049399998 0.013165602 0.0034348369
-0.045600001 0.013165602 0.003444612
-0.0418 0.013165602 0.0025120974
-0.037999999 0.013165602 0.0015423894
-0.034199998 0.013165602 -0.0022002459
-0.030400001 0.013165602 -0.00032067299
-0.0266 0.013165602 0.036566496
-0.0228 0.013165602 0.039398551
-0.018999999 0.013165602 0.038462818
-0.0152 0.013165602 0.033762634
-0.0114 0.013165602 0.033768892
-0.0076000001 0.013165602 0.034717143
-0.0038000001 0.013165602 0.035668433
0 0.013165602 0.034732759
0.0038000001 0.013165602 0.033797145
0.0076000001 0.013165602 0.034748435
0.0114 0.013165602 0.035696566
0.0152 0.013165602 0.036644638
0.018999999 0.013165602 0.036650836
0.0228 0.013165602 0.036657095
0.0266 0.013165602 0.038550138
0.030400001 0.013165602 0.038556397
0.034199998 0.013165602 0.03667897
0.037999999 0.013165602 0.034804821
0.0418 0.013165602 0.032853425
0.045600001 0.013165602 0.026273847
0.049399998 0.013165602 0.0073761344
0.053199999 0.013165602 0.0045658946
0.057 0.013165602 0.0026946664
0.060800001 0.013165602 0.00079071522
0.064599998 0.013165602 0.00079727173
0.068399996 0.013165602 -0.00013405085
0.0722 0.013165602 -0.00012749434
0.075999998 0.013165602 -0.00012093782
0.079800002 0.013165602 0.00082343817
0.0836 0.013165602 0.0046244264
0.087399997 0.013165602 0.005569756
0.091200002 0.013165602 0.003698647
-0.094999999 0.016457004 0.00043296814
-0.091200002 0.016457004 0.0023121834
-0.087399997 0.016457004 0.0061020851
-0.0836 0.016457004 0.0070458651
-0.079800002 0.016457004 0.0042406321
-0.075999998 0.016457004 0.0014054179
-0.0722 0.016457004 0.0014119148
-0.068399996 0.016457004 0.0033261776
-0.064599998 0.016457004 0.0042699575
-0.060800001 0.016457004 0.0042765141
-0.057 0.016457004 0.0033457279
-0.053199999 0.016457004 0.002415061
-0.049399998 0.016457004 0.0033620596
-0.045600001 0.016457004 0.0023972392
-0.0418 0.016457004 0.003375113
-0.037999999 0.016457004 0.0024102926
-0.034199998 0.016457004 -0.0013247132
-0.030400001 0.016457004 -0.0041267276
-0.0266 0.016457004 -0.0022477508
-0.0228 0.016457004 0.032591164
-0.018999999 0.016457004 0.038307965
-0.0152 0.016457004 0.039254189
-0.0114 0.016457004 0.039260447
-0.0076000001 0.016457004 0.039266646
-0.0038000001 0.016457004 0.037396133
0 0.016457004 0.034582436
0.0038000001 0.016457004 0.034588695
0.0076000001 0.016457004 0.035538077
0.0114 0.016457004 0.037424326
0.0152 0.016457004 0.03837043
0.018999999 0.016457004 0.037436843
0.0228 0.016457004 0.037446201
0.0266 0.016457004 0.038392305
0.030400001 0.016457004 0.037458718
0.034199998 0.016457004 0.035585105
0.037999999 0.016457004 0.033643544
0.0418 0.016457004 0.03271085
0.045600001 0.016457004 0.026144803
0.049399998 0.016457004 0.0054188371
0.053199999 0.016457004 0.0016444325
0.057 0.016457004 -0.00021791458
0.060800001 0.016457004 -0.00021129847
0.064599998 0.016457004 -0.00020474195
0.068399996 0.016457004 0.00073778629
0.0722 0.016457004 0.0016804338
0.075999998 0.016457004 0.0026229024
0.079800002 0.016457004 0.0026666522
0.0836 0.016457004 0.0064209104
0.087399997 0.016457004 0.0064274073
0.091200002 0.016457004 0.0026862621
-0.094999999 0.019748405 -0.00055712461
-0.091200002 0.019748405 0.00038057566
-0.087399997 0.019748405 0.005092442
-0.0836 0.019748405 0.0060344338
-0.079800002 0.019748405 0.0041701794
-0.075999998 0.019748405 0.001344502
-0.0722 0.019748405 0.0013510585
-0.068399996 0.019748405 0.0022919774
-0.064599998 0.019748405 0.0022985339
-0.060800001 0.019748405 0.0023050904
-0.057 0.019748405 0.0042126775
-0.053199999 0.019748405 0.0042224526
-0.049399998 0.019748405 0.0042290092
-0.045600001 0.019748405 0.0033002496
-0.0418 0.019748405 0.0023411512
-0.037999999 0.019748405 0.0014134049
