# .PCD v0.7 - Point Cloud Data file format
VERSION 0.7
FIELDS x y z
SIZE 4 4 4
TYPE F F F
COUNT 1 1 1
WIDTH 1266
HEIGHT 1
VIEWPOINT 0 0 0 1 0 0 0
POINTS 1266
DATA ascii
-0.043060206 -0.082690276 0.0033151358
-0.03856384 -0.082124695 0.0043648602
-0.032416411 -0.082375363 0.0024634113
-0.026975026 -0.081958733 0.0015806953
-0.022087861 -0.082116343 0.0028245226
-0.017344328 -0.08264441 0.0039097401
-0.012144854 -0.082860321 0.0040877284
-0.0069539454 -0.082447745 0.0032693148
-0.0021388186 -0.082483977 0.0040996894
0.0033511866 -0.083092488 0.0045216382
0.0080385776 -0.08361277 0.0044114888
0.012385733 -0.082239248 0.0044688978
0.027965184 -0.082373947 0.0037844554
0.032537948 -0.082910933 0.0041991323
0.043105144 -0.08264035 0.0040066415
0.047563329 -0.082448445 0.0033708082
0.052496918 -0.082219481 0.0026099219
0.057453625 -0.082187161 0.0025089448
0.062225651 -0.082299873 0.003601253
0.067605443 -0.08255747 0.0044776723
0.072139949 -0.082410298 0.0039910749
0.077505924 -0.082189843 0.0032583028
0.082255311 -0.082383819 0.0032151407
0.087211639 -0.082448103 0.0034451287
0.09216179 -0.082545735 0.0037847294
-0.09229067 -0.077373266 0.002924429
-0.087409705 -0.077672362 0.0039208531
-0.082347326 -0.07721556 0.0030380553
-0.077375896 -0.07737346 0.0029522246
-0.072132878 -0.077604994 0.003172785
-0.0667556 -0.077607006 0.0037394101
-0.06222653 -0.07735002 0.0047459304
-0.057405848 -0.077381864 0.003633115
-0.051711969 -0.078074187 0.0046210885
-0.046947882 -0.077473551 0.003337966
-0.042164914 -0.077345997 0.0036183447
-0.037432913 -0.076827906 0.0049122968
-0.031519823 -0.077384993 0.00386491
-0.027122689 -0.077340633 0.0029362505
-0.022201383 -0.077207327 0.0025068324
-0.017737607 -0.076850347 0.0031842988
-0.012059842 -0.078008883 0.0042480924
-0.008198835 -0.078717791 0.0038281679
0.023431715 -0.07595548 0.0039950907
0.027626745 -0.077639304 0.0040260819
0.03137039 -0.077393368 0.0046028793
0.048623789 -0.078816809 0.0042638779
0.052459151 -0.078332417 0.0035900276
0.057410352 -0.077440552 0.0034232074
0.062378161 -0.077406831 0.0033231047
0.06735079 -0.077439837 0.0034422213
0.072319835 -0.077407189 0.0033414497
0.077292301 -0.078382194 0.0038009982
0.082464844 -0.077887118 0.0042549297
0.087243691 -0.077108473 0.0023818214
0.092228197 -0.076908983 0.0017329984
-0.092212655 -0.072876483 0.0040289164
-0.085205406 -0.073674679 0.0045826435
-0.082138181 -0.072542816 0.0036488241
-0.077368177 -0.072170727 0.0024550159
-0.072287455 -0.072339118 0.0030116306
-0.067276344 -0.071533643 0.0036879778
-0.062079422 -0.072216414 0.0033154637
-0.05739693 -0.072205305 0.0026011798
-0.052438471 -0.072232731 0.0042618257
-0.047264233 -0.072541945 0.0037145349
-0.042329002 -0.072440967 0.0033954317
-0.037699215 -0.071518749 0.0045111179
-0.032331739 -0.072508752 0.0036327243
-0.027468337 -0.072205305 0.0026571353
-0.022567017 -0.071969829 0.0019001232
-0.017338634 -0.072054639 0.0021831095
-0.01390814 -0.073674679 0.0047159195
0.023430116 -0.074536085 0.0048503876
0.026744418 -0.074536085 0.0048565865
0.039173052 -0.074536085 0.0048797727
0.040830202 -0.074536085 0.0048828721
0.054044075 -0.071950257 0.0047145188
0.057140239 -0.073218569 0.0045397962
0.062345307 -0.073372006 0.0038732886
0.067115314 -0.072800815 0.0040804446
0.071478367 -0.073523343 0.0043829679
0.083098106 -0.072407342 0.0035204489
0.087262191 -0.072103992 0.002543509
0.092267789 -0.071975879 0.001351365
-0.092700131 -0.065890253 0.0040054917
-0.087640055 -0.065993518 0.0043419003
-0.081035353 -0.065890253 0.004027307
-0.07771939 -0.06728173 0.0030652615
-0.073268689 -0.067743406 0.0012905716
-0.068053722 -0.067364492 0.00063353777
-0.062895358 -0.066939987 0.0020016497
-0.057771981 -0.067179352 0.0027750731
-0.052656412 -0.067418709 0.0035484764
-0.047752686 -0.067213416 0.0029029979
-0.042831037 -0.067687809 0.0037452355
-0.037302982 -0.068120264 0.0042663473
-0.032666419 -0.067419231 0.0035855372
-0.02770899 -0.067316495 0.0032675266
-0.023619045 -0.067848638 0.0038885593
0.061441727 -0.065890253 0.0042936504
0.078106761 -0.066758007 0.0043856502
0.08227168 -0.067453831 0.0039092964
0.08727514 -0.06721428 0.0031548936
0.092266329 -0.068468921 0.0032977462
-0.092795327 -0.062300008 0.0026660988
-0.087971292 -0.062582716 0.0043209065
-0.082544662 -0.062020738 0.0037616359
-0.077869616 -0.062486764 0.0017475486
-0.072120734 -0.063097619 0.0010566512
-0.067357533 -0.062812813 0.0024046376
-0.063021503 -0.062409565 0.0038232473
-0.05807903 -0.062269945 0.0033977164
-0.053145975 -0.062095907 0.0028632218
-0.04819344 -0.061956644 0.0024374921
-0.042936303 -0.06251248 0.0041879881
-0.037350189 -0.062089127 0.0046480894
-0.03298657 -0.062339664 0.0036620696
-0.028407862 -0.063146301 0.0044169626
0.052760929 -0.061351258 0.0042882166
0.057769675 -0.061775386 0.00384744
0.062019873 -0.062112581 0.0037981346
0.067244291 -0.060979277 0.0049286284
0.083113208 -0.06082201 0.0044693053
0.086812697 -0.062114619 0.0039475048
0.092300214 -0.060874432 0.0046494603
-0.092172086 -0.056846816 0.0024506715
-0.08702787 -0.057223104 0.0042767227
-0.082333669 -0.057180226 0.0029686808
-0.077158563 -0.057406679 0.0015576035
-0.072077125 -0.057734437 0.0016939243
-0.067058034 -0.056984622 0.0035821199
-0.062292837 -0.057661135 0.0043509007
-0.057368595 -0.057128683 0.0033837094
-0.05248452 -0.057504069 0.0025666431
-0.047016144 -0.057248235 0.0011257032
-0.041867729 -0.057033237 0.0022377868
-0.037953943 -0.057960007 0.0042163134
-0.034822069 -0.058357805 0.0045661926
0.053003699 -0.058357805 0.0047303885
0.05736817 -0.057462767 0.0039644167
0.062184829 -0.057305709 0.004149152
0.067205541 -0.057199463 0.00383336
0.07223548 -0.05741109 0.0044936072
0.077049673 -0.057581712 0.004367359
0.082526758 -0.057438217 0.0030880314
0.087083176 -0.057211965 0.0023989507
0.092351161 -0.056881759 0.0029042761
-0.092657104 -0.051712319 0.002560046
-0.087696008 -0.052394588 0.0031403813
-0.082275398 -0.052211005 0.0025940111
-0.077420972 -0.05189164 0.0031290981
-0.072773509 -0.052789986 0.0012829974
-0.067414157 -0.052450657 0.0022271872
-0.061940264 -0.052121371 0.0038535339
-0.057213034 -0.051963124 0.003383239
-0.052330229 -0.052565709 0.0017320117
-0.047389541 -0.052796312 0.00069422193
-0.042452671 -0.052611839 0.0027604878
0.053039432 -0.052178584 0.0032000423
0.057071559 -0.051854935 0.0032728976
0.062111542 -0.051783621 0.0030658378
0.067156971 -0.051783621 0.0030752686
0.072415888 -0.052151594 0.0035444051
0.077490576 -0.053012628 0.0030767748
0.0819612 -0.052257944 0.0019220471
0.087347746 -0.053197015 0.001288414
0.09239956 -0.052182481 0.0017145872
-0.092432983 -0.047040295 0.0015488068
-0.088132754 -0.04819309 0.0013681173
-0.082467906 -0.047498971 0.0020693839
-0.077731274 -0.046989832 0.0040066042
-0.072768651 -0.048251908 0.0026067495
-0.068173952 -0.048214853 0.0010253957
-0.062811099 -0.047685232 0.0017993152
-0.057567272 -0.046880584 0.0037209392
-0.052462798 -0.047772557 0.0018633232
-0.047625098 -0.047925573 0.0016828709
-0.04214621 -0.047329247 0.0036091465
0.052603107 -0.047614872 0.0019796253
0.056975458 -0.04698576 0.001666387
0.062267046 -0.0467299 0.0028520003
0.066875175 -0.046909448 0.0025647879
0.072179064 -0.047312181 0.002665624
0.075554892 -0.046196252 0.004511863
0.082511067 -0.046992503 0.0030235052
0.087378003 -0.047491577 0.00064008764
0.092574783 -0.047479954 0.0024965026
-0.093360431 -0.042906024 0.00092490017
-0.082860202 -0.042419828 0.0018212677
-0.077497393 -0.042148206 0.0034219292
-0.072506435 -0.043488774 0.0013910731
-0.067768693 -0.042654697 0.0015133718
-0.062953316 -0.043297723 0.0034050543
-0.057717487 -0.041938879 0.003909342
-0.052919328 -0.042343725 0.0031879295
-0.048075166 -0.042525616 0.0011739201
-0.043050062 -0.04273434 0.0024358705
0.052588739 -0.042484235 0.0027028236
0.05691798 -0.042807035 0.0015573502
0.061774287 -0.042578399 0.0029968109
0.067299493 -0.042816937 0.0028842539
0.071828939 -0.042613797 0.0042118309
0.077444427 -0.042062774 0.0045251921
0.082723796 -0.042564247 0.0040869266
0.087144896 -0.043123949 0.0017147915
0.092448652 -0.042233076 0.0031371713
-0.093188941 -0.036758166 0.0013218025
-0.087316059 -0.035760865 0.00057165325
-0.082219727 -0.037652858 0.0022301541
-0.076856561 -0.037592731 0.0026980117
-0.072097085 -0.037542026 0.0019267002
-0.068470813 -0.038025934 0.0033283036
-0.060152985 -0.03623867 0.0032532811
-0.057557773 -0.037076186 0.0031426449
-0.052856229 -0.037512433 0.0039004087
-0.048095021 -0.038137119 0.0036885804
-0.044295706 -0.038471818 0.0033966899
0.0535363 -0.039811075 0.0036482215
0.056882903 -0.037840087 0.003025949
0.0619714 -0.037913688 0.0032505856
0.067056708 -0.037913509 0.0032602085
0.072129823 -0.036740255 0.0024199784
0.077223413 -0.037188161 0.0037163
0.082306929 -0.03730014 0.0040475032
0.08740899 -0.037429444 0.0019035472
0.092498139 -0.037450824 0.0019743016
-0.092655756 -0.032621782 0.0023072585
-0.087835453 -0.032312501 0.0020648043
-0.082457542 -0.032841031 0.0035725301
-0.077473491 -0.032614268 0.0029401381
-0.07274019 -0.032777101 0.0019798449
-0.067320228 -0.032516398 0.0026807904
-0.06189502 -0.03228486 0.0034642559
-0.056961015 -0.032878619 0.003727244
-0.052278548 -0.032214344 0.0024822801
-0.047659218 -0.03277928 0.0034639388
-0.044890709 -0.034786016 0.0041571259
0.052555196 -0.031754576 0.0032471865
0.056810822 -0.031811085 0.003415674
0.061438203 -0.032541163 0.0037071449
0.067701459 -0.032206934 0.0040537119
0.072118595 -0.032728806 0.0035399464
0.077216484 -0.032841209 0.0038709044
0.082313806 -0.032765329 0.0036666989
0.087425128 -0.032312676 0.0023923186
0.092739567 -0.032494914 0.0022924319
-0.092464328 -0.027251204 0.0027709107
-0.087895043 -0.027036007 0.0026756227
-0.083084695 -0.027981227 0.002348562
-0.077968366 -0.027981749 0.0023578007
-0.072921872 -0.027313428 0.001177907
-0.068051785 -0.027439179 0.0015357787
-0.062504001 -0.027519425 0.0035733646
-0.057457764 -0.027365565 0.0031566422
-0.052406806 -0.027213087 0.0027390521
-0.0481054 -0.027308384 0.0030139785
0.052651383 -0.027543426 0.0028661012
0.056741577 -0.027212564 0.0029434031
0.061613198 -0.027618753 0.0026706797
0.066549987 -0.027616613 0.0028479993
0.072426677 -0.026391065 0.0026634573
0.077419184 -0.027197547 0.0035586432
0.081635304 -0.028386325 0.0042804121
0.087648965 -0.027380899 0.0034672767
0.09239237 -0.027336806 0.0023644031
-0.092326507 -0.022756319 0.0031446218
-0.087106891 -0.022379527 0.0029922526
-0.082393095 -0.021659246 0.0012946526
-0.0773568 -0.022878733 0.0012641634
-0.072725795 -0.022426227 0.0026018322
-0.069262587 -0.022710823 0.0037989169
-0.062572412 -0.022101184 0.0041787825
-0.05792198 -0.021898614 0.0028176969
-0.052711744 -0.02209273 0.0033591124
-0.047867589 -0.022826523 0.0034189462
0.053039961 -0.022275474 0.0028304681
0.056992605 -0.022891829 0.0041204789
0.061806232 -0.02262493 0.0025779128
0.066924341 -0.023016321 0.0012100604
0.072062656 -0.022155007 0.002127846
0.077198155 -0.022209717 0.0039206347
0.083178654 -0.020708025 0.0047069788
0.087738775 -0.022111958 0.0036749144
0.092593871 -0.022612229 0.0026042063
-0.092809059 -0.01767597 0.0010160538
-0.087620661 -0.017817199 0.0027938571
-0.081932805 -0.018223617 0.0031225011
-0.07720539 -0.017989894 0.0018938713
-0.072595648 -0.017578831 0.002409637
-0.06772846 -0.017000813 0.004090202
-0.061994486 -0.017375415 0.0031746863
-0.057910748 -0.017598605 0.0028143288
-0.052659612 -0.017245403 0.0027033943
-0.04804305 -0.018404296 0.0016801442
-0.042955175 -0.016364008 0.0024186969
0.052063297 -0.017687688 0.0037445724
0.063142419 -0.017810773 0.0036132813
0.066903479 -0.018147115 0.0025874244
0.072048791 -0.017584596 0.0035035387
0.076977253 -0.017298911 0.0045605153
0.082333185 -0.01762866 0.0036421418
0.087732911 -0.017413378 0.0020306963
0.092636943 -0.017833726 0.0017865697
-0.092289992 -0.011985195 0.0012289882
-0.087723263 -0.013145592 0.003366285
-0.082796425 -0.012735853 0.0032462
-0.07742013 -0.012271521 0.0028036833
-0.07296557 -0.013009003 0.0037171158
-0.066675201 -0.012804359 0.0031850168
-0.062207535 -0.012549722 0.0018271605
-0.057125509 -0.012351043 0.001307759
-0.051945101 -0.012390739 0.0014232596
-0.047854681 -0.011984539 0.0013124347
0.059140902 -0.011594892 0.0043157935
0.062574036 -0.012240574 0.0036412477
0.066867411 -0.01286698 0.0029150909
0.071812853 -0.012837119 0.003444992
0.077428274 -0.012594104 0.0035810727
0.082120985 -0.013428368 0.0038377047
0.087493882 -0.013026668 0.0033763249
0.092646949 -0.013065656 0.00349217
-0.092903577 -0.0077198702 0.0033643502
-0.089756668 -0.0081076771 0.0043874681
-0.082011528 -0.0088458806 0.0039571226
-0.079344369 -0.0097627342 0.003993392
-0.072372876 -0.0078326054 0.0042938292
-0.067497253 -0.0078462828 0.003743377
-0.062414613 -0.0076453122 0.0032253596
-0.057373364 -0.0073231291 0.002391133
-0.051999025 -0.0076251626 0.0018299903
-0.047580205 -0.0071509224 0.0019572377
-0.043879956 -0.0064792037 0.00020068884
0.05822318 -0.0077252421 0.0036621625
0.062531151 -0.0077461503 0.0037224691
0.066832148 -0.0075645018 0.0032561952
0.07200253 -0.0075641507 0.0032660763
0.077174015 -0.0074835154 0.0030648974
0.081482477 -0.0076241395 0.0034422476
0.088648893 -0.0091509717 0.0042869053
0.092231937 -0.0093039125 0.0042987317
-0.092084751 -0.0024058265 0.0023982865
-0.087199807 -0.0021238998 0.0036197156
-0.08257696 -0.0024922565 0.0039901882
-0.077437565 -0.0024013445 0.0037626773
-0.072696164 -0.002456018 0.0032382268
-0.067309812 -0.0035988539 0.0045194179
-0.063066393 -0.0026676145 0.0031287414
-0.057751391 -0.0019535024 0.0026423666
-0.052833911 -0.0031028688 0.0014887154
-0.047417358 -0.0023254785 0.0020483732
-0.043479651 -0.003523628 0.0004256765
0.052556358 -0.0013845488 0.0049102455
0.05816647 -0.0024425883 0.0041210386
0.067078196 -0.0020351906 0.0030859411
0.071974233 -0.0025928915 0.0021752815
0.077164359 -0.0024708856 0.0018693209
0.082352057 -0.0020352688 0.0031144533
0.087531723 -0.0008001526 0.0046467185
0.093212917 -0.0020323736 0.0038036534
-0.093210913 0.0025005713 0.0011412427
-0.087652691 0.0027795136 0.0021953483
-0.08241991 0.0027183741 0.0023628771
-0.076561347 0.0022233501 0.00363224
-0.072789833 0.0025574148 0.0041908384
-0.067784786 0.0023161545 0.0045802146
-0.063014984 0.0018987544 0.002732262
-0.057990555 0.002347077 0.0033523242
-0.052815065 0.0016665757 0.002757364
-0.047571752 0.0025322703 0.0036779775
-0.044347409 0.0029644966 0.001804024
0.052907232 0.0029862921 0.0042691431
0.058357112 0.0024623105 0.0042786174
0.062612817 0.0031511546 0.0048017264
0.067005411 0.0021966014 0.0029671618
0.071954273 0.001954688 0.0022561417
0.07733015 0.0021479547 0.0027069568
0.082107939 0.0019849581 0.0035350067
0.0877636 0.0026876777 0.0045110881
0.092755079 0.0024090011 0.0034768581
-0.092321977 0.0079403687 0.00079315051
-0.087904431 0.0074785762 0.0019616708
-0.083053559 0.0078068525 0.0011469871
-0.077610977 0.0070085265 0.0037408322
-0.072046585 0.0071966872 0.0032808557
-0.067062996 0.0070369905 0.0031128724
-0.061900098 0.0071608424 0.0028079881
-0.057234965 0.0075111515 0.0026015553
-0.052900698 0.0067311265 0.003328003
-0.047566134 0.0070801377 0.0043613738
-0.043286417 0.0074031865 0.0028961387
-0.039710283 0.0098617673 0.00071501732
0.054585591 0.0074254274 0.0046769977
0.057827234 0.0071028024 0.003758952
0.063253827 0.0076760352 0.0040658712
0.067230448 0.0065506059 0.0039232969
0.071940497 0.0069119069 0.0036865142
0.076931641 0.0073378012 0.0032065734
0.082359016 0.0067868233 0.0040197968
0.087320097 0.0072407299 0.0042099184
0.092787974 0.0070368117 0.0034115911
-0.091796063 0.012615509 0.0024228916
-0.087208278 0.011972318 0.0030654669
-0.082760118 0.011796558 0.0032014013
-0.077824794 0.012260056 0.0039049918
-0.072815031 0.012766374 0.0026627844
-0.067533396 0.012639529 0.0029854046
-0.062402483 0.011657138 0.0038948357
-0.05708985 0.012681342 0.0029003818
-0.052140642 0.013037391 0.0026052818
-0.047724169 0.012041782 0.0038482887
-0.043100577 0.012555199 0.0032397311
-0.039755449 0.012975425 0.0022019546
0.053330015 0.012968734 0.003928592
0.057962809 0.011977117 0.0025614004
0.063201644 0.011787902 0.0030409396
0.067551106 0.012008876 0.0025011301
0.071558841 0.012029707 0.0019958138
0.07713975 0.011733532 0.0008937518
0.082369253 0.01231469 0.0027548245
0.088281974 0.011495513 0.0042737247
0.092581607 0.012261161 0.0029084426
-0.092833221 0.017414417 0.0016641191
-0.08872921 0.01696831 0.0037380755
-0.08008524 0.018655866 0.0041873157
-0.077692933 0.017727545 0.0028818676
-0.073018238 0.017661702 0.0016167045
-0.067734852 0.017961174 0.0030620843
-0.062570371 0.017194545 0.0036897659
-0.057399102 0.017972456 0.0036233133
-0.052219521 0.018142346 0.003216472
-0.04697476 0.018142875 0.003226598
-0.042091239 0.017578149 0.0027916669
-0.038268693 0.017055869 0.002250588
0.049166255 0.018848777 0.0039614141
0.05263735 0.017735198 0.0021293759
0.057172455 0.016615909 0.00076286792
0.063136406 0.015486538 0.00079399347
0.06836044 0.019252181 0.00073778629
0.072311491 0.018492885 0.0014552176
0.077380501 0.017522607 0.0017139657
0.08132638 0.017125368 0.0032165647
0.089354493 0.017716289 0.004521668
0.092878073 0.017734725 0.0022043227
-0.091493912 0.022902945 0.00069298345
-0.088216044 0.022627672 0.0028682847
-0.081875868 0.022690898 0.0039301394
-0.076887675 0.02229793 0.0027394369
-0.072227746 0.022686135 0.0018145069
-0.068051592 0.022556674 0.00247401
-0.063059501 0.022040635 0.0028210415
-0.057834607 0.022877684 0.0030757685
-0.052508842 0.02268373 0.0035525758
-0.046853043 0.022390861 0.0038148046
-0.042059593 0.022126904 0.0026528174
-0.036990378 0.022730073 0.0012095901
-0.03302661 0.024163455 0.0007834633
-0.028188737 0.024146447 0.0023389459
-0.023085751 0.024729922 0.00094881654
-0.018434223 0.023757458 0.0032903254
0.049069636 0.023006573 0.0029640198
0.051951636 0.023088673 0.001267612
0.057783842 0.024665097 0.0012555122
0.063046522 0.024924397 0.00064325333
0.067468114 0.022643631 0.0016122162
0.071861558 0.022385882 0.0022434858
0.076829128 0.022523513 0.0011681715
0.082384564 0.023015598 0.0022534232
0.087280393 0.022391189 0.0040657045
0.093175344 0.021989172 0.0039901831
-0.09112417 0.027771637 0.00031945109
-0.087574996 0.027305594 0.0021857221
-0.082792439 0.027590074 0.0030147035
-0.077357523 0.027197586 0.0039558541
-0.072450384 0.027357951 0.0030238852
-0.066960379 0.027294984 0.0029961865
-0.063246973 0.027524063 0.0046978393
-0.0580227 0.028094616 0.001860243
-0.052540537 0.027722891 0.0021135211
-0.047793139 0.02690337 0.0039635599
-0.042170275 0.02620618 0.0041377246
-0.037507456 0.027994417 0.0015755147
-0.031970289 0.028049704 0.0020152926
-0.027722985 0.02705132 0.003756651
-0.023105213 0.027806362 0.002607988
-0.018135151 0.027945187 0.0017280057
-0.012147443 0.026808344 0.0016379058
-0.0084554404 0.028811058 0.0032407839
0.046983156 0.027283821 0.0027021084
0.052682802 0.028141472 0.0013949051
0.057759233 0.028068135 0.0021385683
0.062776051 0.027899159 0.0012677567
0.067436427 0.028069207 0.0021573007
0.071833789 0.028155642 0.0019581649
0.077111848 0.028665166 0.0013183355
0.082388647 0.027894216 0.0025986831
0.087649874 0.027241163 0.004160848
0.092328601 0.02690337 0.0042254925
-0.086984977 0.032515451 0.0014344007
-0.082936831 0.032616321 0.0030594666
-0.078053944 0.032629043 0.0022979181
-0.073287092 0.032598414 0.0010430098
-0.067172207 0.031858653 0.00078380108
-0.061806425 0.03276559 0.003675364
-0.056672703 0.032949027 0.0029198409
-0.052351419 0.032986183 0.0037286978
-0.047962639 0.033031348 0.0036343602
-0.042720422 0.033163473 0.0033346084
-0.037308753 0.033028409 0.0027703703
-0.032187141 0.032545779 0.0025767013
-0.02703692 0.03319183 0.0038512722
-0.022810426 0.03286593 0.0034334573
-0.017831428 0.032571871 0.0032840967
-0.01284836 0.032759387 0.002109145
-0.0077286223 0.033111714 0.0029634312
-0.0022103067 0.033754032 0.0035067399
0.0049178824 0.032853872 0.004145205
0.0071900785 0.033754032 0.0035242836
0.011843602 0.033515412 0.0026108623
0.017199503 0.034124941 0.0041557155
0.020702004 0.034760475 0.0041560531
0.034802586 0.034760475 0.0041823983
0.038371619 0.032853872 0.0042077899
0.041848294 0.032727253 0.0027368783
0.047087014 0.03263583 0.00092364207
0.052412353 0.032743432 0.0022701919
0.057726484 0.032364711 0.0031707983
0.063215494 0.032227125 0.0018333122
0.067395218 0.033090532 0.001485765
0.071815573 0.032628525 0.0025777619
0.077104993 0.033156946 0.0013493598
0.082397401 0.032892868 0.001978467
0.087378353 0.032351974 0.0039969184
0.092948236 0.031902164 0.0043200552
-0.093048051 0.038246658 0.0015408482
-0.087261267 0.03729292 0.0024965603
-0.081936769 0.037675362 0.0028852138
-0.077443093 0.037783142 0.0013833245
-0.072776921 0.037482638 0.001451935
-0.06774538 0.038189504 0.0017204966
-0.062752172 0.037675362 0.0029210788
-0.05713788 0.037827522 0.003523628
-0.05208252 0.037657946 0.004364884
-0.047872663 0.037435718 0.0040053367
-0.043113451 0.038161438 0.0027781327
-0.037648026 0.037626684 0.0040227771
-0.032644741 0.037310611 0.0031119883
-0.02711126 0.037827522 0.0035797555
-0.022186516 0.038058978 0.0034949302
-0.017845742 0.037355702 0.0042467713
-0.013277012 0.037737649 0.0042519569
-0.0070330412 0.037307616 0.0040823123
-0.0026351456 0.037410628 0.0029364824
0.0011896044 0.037626684 0.0040953755
0.0086683994 0.037356742 0.0025290337
0.012315651 0.037568532 0.0011623383
0.016655598 0.038362127 0.0014818652
0.022683837 0.038149424 0.0018236935
0.027616208 0.038027819 0.0032189984
0.032839149 0.038695667 0.0016853412
0.037962396 0.037811499 0.002086401
0.042273838 0.036912702 0.0029914209
0.047087435 0.036893025 0.0036742224
0.052151278 0.037260406 0.0033861771
0.057665773 0.037160445 0.0030768183
0.062971458 0.037026558 0.003395213
0.067383021 0.03713724 0.0031458538
0.071797661 0.03724917 0.0028972561
0.077097401 0.037605144 0.0020838578
0.08239986 0.03729327 0.0028139288
0.086638682 0.037454158 0.0033339025
-0.092905477 0.042599842 0.0034785138
-0.087672643 0.04226828 0.0042452142
-0.081579685 0.041913901 0.0044392091
-0.07691399 0.042463318 0.0038153199
-0.072068527 0.042578381 0.0041902238
-0.06788002 0.042216938 0.0031462908
-0.062735975 0.042229008 0.0038303658
-0.057736572 0.042482834 0.0032629147
-0.052086439 0.042330481 0.004170835
-0.047255252 0.042246375 0.0043701017
-0.042675335 0.041914493 0.0036783319
-0.037943076 0.042375285 0.0040945541
-0.03299864 0.042333037 0.0029478925
-0.027428424 0.041998114 0.002784292
-0.022078553 0.041863695 0.0031024616
-0.01760155 0.041661687 0.0035728514
-0.013149106 0.042304426 0.0043020588
-0.0071067349 0.042782646 0.0049684765
-0.0028420072 0.042533241 0.0032499731
0.0023309141 0.041939095 0.0040691644
0.0083885919 0.041974355 0.0033428669
0.012919501 0.042350587 0.001320829
0.017178098 0.042074729 0.0022522092
0.021884728 0.041899282 0.0014548004
0.027496705 0.041930914 0.0030410688
0.032799575 0.042778734 0.0033023688
0.038133174 0.042598799 0.0037228267
0.042577058 0.042419571 0.004142046
0.046979729 0.04294239 0.0036869645
0.052076925 0.042432617 0.0035838932
0.05761319 0.042159777 0.0035132256
0.062921308 0.042862426 0.0037172139
0.06704852 0.04383561 0.0038735073
0.072225325 0.04193949 0.0042000711
0.077092335 0.041660503 0.0037492018
0.082697265 0.041913703 0.0039122305
0.087368764 0.042297591 0.0027512312
0.093040258 0.043970566 0.0036142468
-0.092904434 0.047038037 0.0038697005
-0.087983377 0.047299445 0.0037250717
-0.08254692 0.047785699 0.0048065782
-0.075452246 0.047785699 0.0048198104
-0.071768001 0.047751151 0.0031714081
-0.067571998 0.047298919 0.0037629306
-0.057561625 0.047209948 0.003672438
-0.052417058 0.047094654 0.0042519174
-0.046929885 0.047051217 0.0034298641
-0.042531684 0.047386516 0.0028895836
-0.037922099 0.047120273 0.0037885308
-0.032762405 0.046813827 0.0032924712
-0.02784317 0.047309566 0.0016382734
-0.022579271 0.047581576 0.0010336438
-0.01714167 0.047173571 0.0019655162
-0.01248659 0.047026522 0.0044800788
-0.0072570555 0.049716055 0.004943043
-0.0013993736 0.046266139 0.0040426403
0.0024591344 0.046947427 0.0025145214
0.0078219166 0.04676573 0.0029339658
0.013058914 0.047309574 0.001714733
0.017603332 0.046674799 0.0031569104
0.021965206 0.047219075 0.0019363099
0.027308127 0.04712823 0.0021509991
0.032119103 0.047552377 0.0041020117
0.036244877 0.048195302 0.0041080117
0.047274578 0.046429731 0.0037651777
0.052476291 0.047168009 0.0033524972
0.057544179 0.047018427 0.0030008107
0.062881984 0.047505707 0.0039757369
0.068200015 0.048331827 0.0038608313
0.084189773 0.048604876 0.0032768846
0.087755769 0.047446445 0.0015476876
0.09249416 0.047863051 0.0020670295
-0.091297023 0.051417574 0.0038653214
-0.087342806 0.05281141 0.0028223139
-0.08274743 0.051666457 0.0042258799
-0.077698156 0.052017361 0.0039927098
-0.07248272 0.052337695 0.0032873882
-0.067686014 0.052708175 0.0039087734
-0.05763685 0.052280731 0.0040591615
-0.052746881 0.051879603 0.0043455097
-0.047542468 0.052292541 0.0034365389
-0.042163171 0.05197465 0.0036117807
-0.037242271 0.052645963 0.0021283105
-0.03248119 0.052545216 0.0029034715
-0.028082093 0.052750971 0.0024519365
-0.022850119 0.052130222 0.003303811
-0.016727783 0.051904965 0.0037424478
-0.01193839 0.052293416 0.0035036537
-0.0077646747 0.053216934 0.0043273568
-0.0047703981 0.053586304 0.0049446821
0.0028462622 0.051904511 0.0037787643
0.007352951 0.052491579 0.0025564581
0.012899204 0.052055765 0.0019150475
0.01791808 0.052336048 0.0025992156
0.022105424 0.052130021 0.0033877268
0.027293881 0.050264299 0.0037812591
0.034421738 0.050127238 0.0041012168
0.036199108 0.050127238 0.004104495
0.052127931 0.052659251 0.0028060344
0.057462242 0.05284287 0.0024077694
0.062827513 0.052430123 0.0033365753
0.068155132 0.052980278 0.0021214155
0.072177231 0.052754089 0.0037114322
0.077072106 0.054000616 0.0041798353
0.083128765 0.053085942 0.0036399842
0.08755558 0.053440291 0.0016727298
0.093633659 0.053065419 0.0019793937
-0.09034995 0.055526137 0.0047860742
-0.08703731 0.05765542 0.0043889815
-0.08231198 0.058165602 0.0038897991
-0.077904306 0.057487819 0.0042401776
-0.072809435 0.057550129 0.0040370738
-0.067474701 0.057053 0.003608505
-0.06212071 0.057053 0.0036185086
-0.057316646 0.057933748 0.0045473776
-0.052727781 0.056859266 0.0044922354
-0.047889311 0.057191905 0.0033396583
-0.042744875 0.057470422 0.0048791766
-0.037063975 0.057873022 0.0031476258
-0.032438207 0.057516005 0.0033692319
-0.027725134 0.057886891 0.0039907098
-0.023121778 0.057828154 0.0041307127
-0.01752596 0.057669189 0.0038785848
-0.012246627 0.058211215 0.0033069914
-0.0073156795 0.058045629 0.0042913044
-0.0026963372 0.056602418 0.0047228634
0.0023948711 0.05770864 0.00443995
0.0076533235 0.05715147 0.002612974
0.012885104 0.057329975 0.001862967
0.018071964 0.057515401 0.0020362933
0.022587426 0.057435051 0.002936855
0.027101291 0.057053264 0.0037854612
0.032001164 0.057505287 0.0038724095
0.038394451 0.057887722 0.0041148267
0.041965839 0.057887722 0.0041215024
0.053405114 0.057713248 0.0034539551
0.057405513 0.057677936 0.0024672151
0.062769003 0.057608616 0.0026300747
0.068135165 0.057399865 0.0030980904
0.072604567 0.05712232 0.0037175417
0.077065222 0.057847667 0.0036625862
0.082421049 0.05735901 0.0036450147
0.087553501 0.057800353 0.0038621873
0.093140446 0.057701476 0.0031968488
-0.086414702 0.06136471 0.0048091412
-0.082225613 0.062832557 0.0037555497
-0.076883279 0.062902674 0.0036132038
-0.072161257 0.062260348 0.003740883
-0.068041168 0.062440649 0.0025081236
-0.062490765 0.062383257 0.0021109655
-0.057170451 0.062832564 0.0038023889
-0.051654492 0.062503502 0.0029333681
-0.047348082 0.062135946 0.0032064021
-0.042088855 0.062015552 0.0048949718
-0.037761785 0.062398452 0.0043554185
-0.027231716 0.062155783 0.0046180487
-0.023113012 0.06262143 0.0043225787
-0.01774673 0.062110811 0.0040249131
-0.012270142 0.06136471 0.004947722
-0.0066236882 0.062313996 0.0045962334
-0.0024437606 0.06136471 0.0049660802
0.001996994 0.061504941 0.0046696863
0.0072361347 0.062206406 0.0031563176
0.012031246 0.061810788 0.0033160548
0.017147258 0.060253531 0.0031655431
0.022434294 0.062346812 0.002880156
0.026892824 0.062486853 0.0025837156
0.032058034 0.062555879 0.0029754937
0.037670135 0.06220651 0.0032132694
0.041290678 0.061019465 0.0036722422
0.057119381 0.062435057 0.0022198334
0.062928706 0.062803343 0.0014310181
0.068096854 0.06258069 0.0024578439
0.072576217 0.062557675 0.0025171936
0.076801516 0.062524453 0.0038115722
0.082654357 0.062609255 0.0029562935
0.088061325 0.062946253 0.0029192823
0.092925236 0.062946253 0.0029283676
-0.094996922 0.067231804 0.0048258901
-0.082455039 0.067625284 0.0034810528
-0.077325277 0.067894287 0.0034419233
-0.072097436 0.067903474 0.0039599314
-0.068065859 0.067428909 0.0030490954
-0.063180536 0.06768962 0.0030596615
-0.057384271 0.066535197 0.0042818487
-0.052006546 0.066534929 0.004291743
-0.048334278 0.066252366 0.0049066842
-0.039316326 0.065272927 0.0049171448
-0.027273746 0.067279428 0.0036468592
-0.022144744 0.067722961 0.0022224665
-0.017733658 0.066990525 0.0029568672
-0.012421166 0.067340657 0.0035447052
-0.0072540096 0.06681855 0.0037679374
-0.0018191158 0.067011148 0.0046335817
0.0020405601 0.066933893 0.0042439997
0.0070588044 0.067030735 0.003338784
0.01074253 0.065696776 0.0040985942
0.022512039 0.067350544 0.0039495467
0.027048321 0.067412965 0.0041415915
0.032463133 0.067158103 0.004018988
0.037222974 0.067658499 0.0041626217
0.043822609 0.069620848 0.0041898489
0.05766809 0.066289842 0.0029091001
0.062249973 0.06573607 0.0030509979
0.068439856 0.066735268 0.0036646605
0.072740547 0.067605168 0.003496337
0.077305518 0.067461528 0.0034516794
0.082433611 0.067678265 0.0036752746
0.087831169 0.06759692 0.0022742252
0.092327245 0.0677386 0.0019788444
-0.082137801 0.072573014 0.0039820522
-0.077935778 0.073359959 0.0023236473
-0.072272517 0.072644047 0.0038487315
-0.06767308 0.07158763 0.003999114
-0.062620468 0.071651153 0.0049224198
-0.059513189 0.072143242 0.0049328804
-0.050529249 0.072143242 0.0049496889
-0.047107574 0.072716005 0.0037445426
-0.042805877 0.072614692 0.0046644607
-0.03172056 0.073127419 0.004994154
-0.026998023 0.071710326 0.0038154721
-0.021922985 0.071969494 0.0032769244
-0.017435756 0.07201729 0.0031843882
-0.013505075 0.071616732 0.0033395588
-0.00038131699 0.073002011 0.0032258928
0.0028552425 0.073103584 0.0023202002
0.006527917 0.072153375 0.0037782073
0.023044338 0.072859131 0.0035727422
0.027565312 0.072680153 0.0039598197
0.032963071 0.072680153 0.0039699078
0.037443303 0.072859138 0.0035996735
0.042848721 0.072787702 0.0037613213
0.047346756 0.073557585 0.0042336583
0.069841288 0.073557585 0.0042756796
0.072842889 0.072900929 0.0042748055
0.076816075 0.072156116 0.0035901815
0.080638453 0.072572604 0.0042861104
0.087842852 0.072159797 0.0030778912
0.092353947 0.072517313 0.0023288231
-0.085918792 0.078681685 0.0043479204
-0.082595594 0.077423275 0.003693141
-0.077993698 0.076848246 0.0040363274
-0.073578469 0.075757198 0.0049438477
-0.056199901 0.076086313 0.0049800575
-0.05262227 0.076415427 0.0049904785
-0.047261152 0.075530708 0.0040782294
-0.042633101 0.075098962 0.0049942136
-0.038333934 0.077364154 0.0044213138
-0.034828197 0.078496754 0.0041374266
-0.021806421 0.077285722 0.0037822605
-0.018573062 0.077653043 0.0038540165
-0.0060053989 0.079486489 0.004203856
-0.0016234532 0.07829944 0.0041973232
0.0030306925 0.077892393 0.003389948
0.007608287 0.076734751 0.0037387908
0.010384023 0.075530708 0.0041859746
0.023865689 0.076518863 0.004222855
0.026569195 0.076518863 0.0042279065
0.033186015 0.076189481 0.0042364001
0.03702696 0.076321229 0.0042451262
0.042809438 0.075530708 0.0042466125
0.046412256 0.075530708 0.0042533278
0.064400494 0.07779748 0.0037069719
0.06823872 0.077477828 0.0038620532
0.072338499 0.077632084 0.0032329797
0.077030666 0.077456467 0.0023575623
0.082145341 0.078456521 0.0037480693
0.087860405 0.077023901 0.0032846928
0.092386156 0.077492319 0.0023105592
-0.086334586 0.081032574 0.0049853623
-0.022310782 0.082427055 0.0027346984
-0.0061812587 0.082681045 0.0037935376
-0.0025780809 0.082753532 0.003649354
0.012844842 0.082461998 0.0042808801
0.052611917 0.082571521 0.0041293353
0.055920918 0.082938999 0.0040650568
0.063754268 0.083084501 0.0037781994
0.067722932 0.082286134 0.0038605162
0.072683744 0.082215786 0.0036606074
0.077023253 0.082245298 0.0027784375
0.082456373 0.08326412 0.0027538936
0.088152431 0.08214891 0.0018145612
0.092408575 0.082196884 0.002907743
-0.030996446 0.089652717 0.0038617849
-0.027788579 0.086991839 0.0035486699
-0.024083437 0.087269709 0.0036062747
-0.0035545193 0.085443854 0.0042957366
0.012741413 0.085443854 0.0043261945
0.052575924 0.085443854 0.0044006407
0.057305709 0.087242723 0.0043259338
0.061798323 0.086639769 0.0044380068
0.066155873 0.085443854 0.0044260621
0.078830488 0.085443854 0.0044497252
0.082203224 0.087684944 0.0028042707
0.087914005 0.087428361 0.0017707878
0.091521017 0.087583609 0.004206121
-0.035712078 0.092653602 0.0039099455
-0.032206926 0.093172908 0.0028673112
-0.027601875 0.092171021 0.0028559666
-0.024697728 0.09142977 0.0043606162
0.067908503 0.093728758 0.0039731464
0.083555259 0.091651335 0.0032954335
0.087694511 0.092346042 0.0032255799
0.092153259 0.092764199 0.0046047568
-0.030707419 -0.094680071 0.0054536462
-0.027482336 -0.09400551 0.00539912
-0.022362763 -0.093345299 0.005835712
-0.017687861 -0.092853509 0.005800277
0.0077575371 -0.094680071 0.0055255294
0.016759971 -0.094680071 0.0055423579
0.020033579 -0.094680071 0.0055484772
0.047040887 -0.094680071 0.0055989623
0.056861728 -0.094680071 0.0056173503
0.073627301 -0.09144713 0.0058454871
0.077318117 -0.09299241 0.0055050016
0.093689874 -0.094680071 0.0056861639
-0.070500605 -0.088204652 0.0057786107
-0.068858244 -0.088204652 0.0057816505
-0.022795206 -0.089803122 0.0056829453
-0.018709581 -0.089755177 0.0055248737
-0.0072683468 -0.089611351 0.0050491691
0.001764603 -0.089611351 0.0050660572
0.005870495 -0.089611351 0.0050737262
0.014827035 -0.085098863 0.0066420436
0.018342689 -0.087331712 0.0063539445
0.023108101 -0.087476812 0.0062948815
0.038703769 -0.08742702 0.0061594397
0.042837501 -0.089707233 0.0054742298
0.046929367 -0.089611351 0.0051504672
0.057604678 -0.089611351 0.0051704049
0.068544954 -0.088480771 0.0050938129
0.072382309 -0.088121355 0.005762313
0.076764427 -0.08867278 0.0057718158
-0.070839442 -0.084806502 0.0054905415
-0.068370357 -0.084806502 0.0054951608
-0.037035584 -0.08344283 0.0054414631
-5.9127808e-05 -0.084806502 0.0056228638
0.0031286359 -0.081631519 0.0061410069
0.0077112452 -0.080949366 0.0060935975
0.013034569 -0.083101436 0.0055072783
0.017999159 -0.082494438 0.0062714913
0.022963367 -0.082592942 0.0066105924
0.026277743 -0.084806502 0.0056720972
0.034405887 -0.081395745 0.0054075122
0.037504077 -0.082614549 0.0055128336
0.041048564 -0.083101124 0.0055598319
0.064136982 -0.084806502 0.0057428479
0.065783039 -0.084806502 0.0057459474
0.074013308 -0.084806502 0.0057613254
0.075659364 -0.084806502 0.0057644248
-0.084560566 -0.079685539 0.0050480962
-0.066560008 -0.075139791 0.0066534281
-0.063199274 -0.076655038 0.0061358013
-0.059786521 -0.079685539 0.005094409
-0.053254537 -0.078120783 0.0054657757
-0.037215073 -0.078741685 0.0057053864
-0.033911336 -0.079213493 0.0054272413
-0.015779309 -0.079114437 0.0051316619
-0.011555886 -0.076985538 0.0059359074
-0.006613771 -0.076880544 0.0063651535
-0.0020205502 -0.07743863 0.0060698888
0.0028821274 -0.077408865 0.0076342463
0.0081315599 -0.07728906 0.007249224
0.012881134 -0.077563204 0.006509135
0.017825225 -0.077512376 0.0063544265
0.022363499 -0.078195266 0.0058541298
0.033288129 -0.077198505 0.006037347
0.037468247 -0.07783708 0.0058063269
0.042744078 -0.077747777 0.00551973
0.047170833 -0.076780096 0.0061370465
0.052460987 -0.076255739 0.0050359368
0.077290803 -0.07584817 0.006495466
0.080601119 -0.076255739 0.0050885081
-0.09027613 -0.071392298 0.0053647161
-0.087271824 -0.072869465 0.0054809367
-0.067631923 -0.073977336 0.0056006312
-0.050996959 -0.074837953 0.0056968927
-0.0366477 -0.07414946 0.0056715608
-0.017174885 -0.070277929 0.007340312
-0.012019007 -0.073379979 0.0075822831
-0.0069416217 -0.074027002 0.0086028976
-0.002076986 -0.073723584 0.0076273084
0.0029955853 -0.074128173 0.008949697
0.0079240352 -0.074027032 0.008630693
0.013163177 -0.073279113 0.0083906408
0.017752314 -0.072964899 0.0079269605
0.022860773 -0.072142035 0.0073134676
0.027758026 -0.072103366 0.0067913593
0.032313816 -0.073157415 0.0080327634
0.037586588 -0.073189363 0.0075230175
0.042269647 -0.073336363 0.0073598027
0.04786431 -0.0732181 0.0082587721
0.051822059 -0.073090807 0.0063581094
0.05820442 -0.071392298 0.0056422949
0.062351923 -0.071392298 0.0056500435
0.068987928 -0.071392298 0.0056624413
0.072975576 -0.072548009 0.0061409711
0.077286288 -0.072660156 0.0070543587
0.080600224 -0.073115654 0.0058131814
-0.092222601 -0.068799332 0.0051721931
-0.08717639 -0.0689018 0.0055090785
-0.082459927 -0.06826508 0.0055123791
-0.040909074 -0.066200048 0.0050831437
-0.038412247 -0.066200048 0.0050877929
-0.021355392 -0.067450576 0.0069346665
-0.018281331 -0.06933222 0.0079081459
0.023454938 -0.069012672 0.0087624788
0.025909446 -0.068858564 0.0082761645
0.052581653 -0.068141192 0.0067151114
0.057335012 -0.068069898 0.0058264732
0.062561192 -0.068515614 0.005715915
0.067478433 -0.06795685 0.0065621734
0.072130434 -0.067987517 0.006669146
0.076612674 -0.068625614 0.0054757358
0.092242569 -0.066076361 0.0062821954
-0.084188946 -0.064774334 0.0058612823
-0.038735431 -0.064194776 0.0059063435
-0.0267947 -0.061844662 0.0074420869
-0.023709254 -0.063740574 0.0080566853
0.053385321 -0.063986659 0.0054255924
0.056162655 -0.063986659 0.0054307976
0.06393972 -0.06446296 0.0051583648
0.066937901 -0.063606262 0.0056801676
0.072477102 -0.062817127 0.006020084
0.077269033 -0.062930621 0.0057174233
0.082032077 -0.063353814 0.0055269343
0.088940665 -0.063592821 0.0051456392
0.092267528 -0.063605942 0.0057276962
-0.061667912 -0.056049287 0.0053233504
-0.036560953 -0.056049287 0.0053703189
-0.032518391 -0.057661515 0.0070332214
-0.029444125 -0.059309304 0.0075054765
0.052987162 -0.056049287 0.0055376887
0.055497859 -0.056049287 0.0055423975
-0.061824434 -0.054294765 0.0052127838
-0.040306039 -0.050776243 0.0050380826
-0.037300948 -0.052727003 0.0072040134
-0.034723274 -0.053612471 0.0083987312
0.050487936 -0.052627206 0.0081788003
0.077248111 -0.050776243 0.0052578053
-0.037908755 -0.047742657 0.0073375581
0.077723876 -0.047683567 0.0056212205
0.080607459 -0.049012214 0.0051595569
-0.066299133 -0.04047817 0.0053572655
-0.062818028 -0.040700514 0.0060081086
-0.059544764 -0.04047817 0.0053698421
-0.040970236 -0.04047817 0.0054045916
-0.038892888 -0.04292034 0.0074394741
0.050370492 -0.043584287 0.0095412731
0.073854052 -0.04047817 0.0056192279
0.075542651 -0.04047817 0.0056223869
0.081452727 -0.04047817 0.0056334436
-0.066566788 -0.037022758 0.0054930248
-0.06307932 -0.03724793 0.0061422321
-0.041960888 -0.037942123 0.0071643949
0.052083045 -0.037428819 0.0062485114
0.056892354 -0.035124302 0.0053110518
0.063668922 -0.035124302 0.0053237081
0.066210128 -0.035124302 0.0053284466
-0.044151109 -0.032818098 0.0069009862
0.050205614 -0.033246577 0.0099325776
0.063651055 -0.033333361 0.0052353144
0.066195041 -0.033333361 0.0052401125
-0.045168106 -0.026829302 0.0066161356
0.049983472 -0.026484132 0.0058344603
0.050012872 -0.025374532 0.0076706409
0.06786453 -0.029742002 0.0050723255
0.072113752 -0.029742002 0.0050802627
0.075513132 -0.029742002 0.0050866008
0.083163477 -0.026484132 0.0058965087
0.085717432 -0.027941525 0.0050230622
-0.066720858 -0.022577483 0.0056352853
-0.063144423 -0.023473322 0.0054913363
0.049947508 -0.021760941 0.0075129271
0.058420863 -0.021059036 0.0056167245
0.08163555 -0.022869909 0.0057364344
0.085725032 -0.023774713 0.0057825744
-0.067131042 -0.019420594 0.0057855546
-0.064646058 -0.019244313 0.0053126812
-0.040982366 -0.01560533 0.005214572
0.049882129 -0.01813364 0.0073635378
0.054517452 -0.016970344 0.0054462105
0.057526153 -0.017542869 0.0057878993
0.060769118 -0.017132068 0.0056523206
-0.086728357 -0.010483682 0.0058802366
-0.070884913 -0.01317205 0.0050682425
-0.068544872 -0.01378119 0.0050947666
-0.041200798 -0.012072365 0.0053972006
0.049794387 -0.012789597 0.0074701309
0.053160481 -0.012032132 0.0054681236
0.057175647 -0.01317205 0.0053076544
0.060041554 -0.01378119 0.0053351521
0.084050775 -0.011038512 0.0052813888
0.085771106 -0.010123253 0.0052523613
-0.087424219 -0.0080622677 0.0061704754
-0.083173528 -0.0072750673 0.0057771355
-0.077487208 -0.0078545958 0.0061195889
0.049702268 -0.0080967844 0.0069898069
0.053091194 -0.0074920007 0.005414655
0.084059335 -0.0073710531 0.0051562786
0.087158047 -0.0071873665 0.0051559927
0.093009487 -0.0071873665 0.0051669241
-0.07951913 -0.0049777925 0.0057088733
-0.067970201 -0.0025452734 0.006028688
0.049589414 -0.0031350951 0.0058930316
0.053393949 -0.0041680932 0.0057447078
0.06251169 -0.0030133526 0.0056013861
0.065103844 -0.0038743615 0.005476594
0.084065743 -0.004612565 0.0050671697
0.087517194 -0.003690958 0.0050452352
0.090966508 -0.003690958 0.0050517023
-0.068805113 0.00055664778 0.0055612326
0.049099598 0.0019437224 0.0069093257
0.061615992 0.00055664778 0.0058050156
0.049444806 0.007353554 0.0071536899
0.052000139 0.0079182936 0.0057474873
-0.086279415 0.013200104 0.0061420798
-0.083116032 0.013719535 0.0066944719
-0.061458945 0.012957771 0.0052641034
0.049342223 0.012266606 0.0064168572
0.051066056 0.011711001 0.0055015087
0.084096432 0.013200104 0.0064605474
0.0865307 0.012902284 0.0062856553
-0.086285517 0.017513521 0.0058224201
-0.082567908 0.017196521 0.0062221191
-0.062240578 0.015454501 0.0052103996
0.049262017 0.015454501 0.0054188371
0.083671831 0.017140061 0.0059150904
0.0868956 0.017400485 0.0061947703
-0.085415073 0.021093488 0.0050624013
-0.083667301 0.021093488 0.0050656796
-0.06212052 0.024868608 0.0050458014
-0.048040539 0.023924053 0.0050866604
0.089372352 0.022979498 0.0053580999
0.093754075 0.023924053 0.005351752
-0.062270738 0.026760995 0.0050182045
-0.046624381 0.028656483 0.0050221384
-0.042236447 0.028656483 0.005030334
-0.0069507211 0.026368797 0.0060529113
0.093789577 0.028656483 0.0052846372
-0.017973214 0.034361959 0.0050112009
-0.00028141588 0.032456964 0.0050638318
0.0028360337 0.033599962 0.0050578951
0.01828149 0.031861633 0.0064910352
0.023005279 0.032583613 0.0065846918
0.027975792 0.032349732 0.0075816512
0.032823298 0.03274269 0.0062318919
0.036654938 0.032456964 0.005132854
0.041971743 0.030555159 0.0051643252
0.089420289 0.033210218 0.005685389
0.092936479 0.032616165 0.0055007851
-0.011074696 0.03798148 0.0054537356
-0.0087389844 0.038551915 0.0056072474
0.0039280751 0.037914265 0.0056358776
0.0065216906 0.038937151 0.0054787397
0.068275608 0.039692789 0.0060495138
0.089445502 0.037225842 0.0051863194
0.092963867 0.037780374 0.0061108139
-0.085402466 0.04160884 0.0057492852
-0.083721966 0.042568475 0.0057469606
-0.062590279 0.04352811 0.0057809949
-0.0085696615 0.04160884 0.0058929324
0.047069591 0.040095985 0.0050853193
0.062966034 0.040095985 0.0051150322
0.067375481 0.04105483 0.005117327
0.071433984 0.042398475 0.0051173093
0.077089779 0.043934524 0.005119463
0.081807576 0.04315877 0.0054391823
0.089460105 0.040095985 0.0051645637
0.093881652 0.041811258 0.0056226552
-0.082209289 0.045450538 0.0057351985
-0.077286899 0.046139181 0.0059258104
-0.073359437 0.045450538 0.005751729
-0.062692314 0.046830896 0.0069925985
-0.059345298 0.047376156 0.0057706833
-0.007871367 0.046209335 0.0063313544
-0.003252048 0.047951069 0.0060273805
0.03274085 0.047786988 0.0050228834
0.038604986 0.047218759 0.0056921756
0.042686872 0.047516953 0.0068802321
0.04635632 0.048845857 0.0062701404
0.062911995 0.045858562 0.005084753
0.067346923 0.04565455 0.0055539012
0.07236322 0.046735581 0.0060201087
0.077084765 0.0472867 0.0062312949
0.08189369 0.047043893 0.0061681098
0.094804749 0.045858562 0.0051443577
-0.092899501 0.052526902 0.0056983232
-0.062744625 0.051598124 0.0066738725
-0.059636585 0.051236838 0.0057615042
-0.042009402 0.053933114 0.0062516332
-0.020680115 0.053171933 0.0058328509
-0.018851191 0.052204385 0.0058370233
-0.0063710064 0.051236838 0.0058610439
-0.0024312795 0.051680673 0.0066028475
0.00068968534 0.052204385 0.0058735311
0.027300499 0.052480359 0.0053111813
0.032634147 0.052480359 0.0053211651
0.038000807 0.052135859 0.0060965517
0.042183761 0.051975518 0.0071752467
0.04713976 0.052637357 0.0076806322
0.073522128 0.05164957 0.0050916076
0.077077158 0.051236827 0.0060170493
0.081519201 0.051443204 0.0055659711
-0.092221968 0.056929626 0.0065039471
-0.074322037 0.057051659 0.0057352781
-0.05651138 0.057051659 0.0057685971
-0.053839773 0.057051659 0.0057736039
-0.041669738 0.057560701 0.0061030784
-0.031692505 0.05899626 0.0058192611
-0.029909596 0.05899626 0.0058225989
-0.021780573 0.057051659 0.0058335066
-0.019007578 0.056634188 0.0067546368
-0.0030590687 0.057329074 0.0063275546
0.0013733022 0.057051659 0.0058767796
0.033714015 0.056682318 0.0053255358
0.036984961 0.056393273 0.0052547604
0.043247581 0.056080952 0.005953908
0.047099199 0.057424467 0.0081884097
0.051065855 0.057357412 0.006153929
0.078850068 0.057469159 0.0051057339
0.081524447 0.057469159 0.0051107407
-0.092532977 0.062567271 0.0064303745
-0.087416723 0.062970057 0.0067753112
-0.046348453 0.064849108 0.0058160424
-0.042921472 0.063335232 0.0062723854
-0.03617388 0.064197741 0.005831758
-0.032076254 0.062823154 0.0065191984
-0.029131364 0.06170918 0.0062913001
-0.015845098 0.062895 0.0058631301
-0.012271863 0.062895 0.0058698058
-0.0086986348 0.062895 0.0058764815
-0.0024454817 0.062895 0.005888164
0.0020744826 0.062613487 0.0065053701
0.013908553 0.06354636 0.0059220591
0.017845865 0.062457997 0.0056628073
0.039499629 0.063317239 0.0050534606
0.043339998 0.063034281 0.0062036365
0.047452401 0.062526062 0.0076271892
0.052069075 0.062567271 0.006700688
-0.092257403 0.067657776 0.0074227056
-0.087058894 0.067486271 0.0084965909
-0.084077664 0.068339825 0.0066815019
-0.057363182 0.068766832 0.0058211884
-0.051986694 0.068766832 0.0058312416
-0.047163963 0.068113349 0.0058356724
-0.042878643 0.067502722 0.0064486265
-0.037200782 0.067775302 0.0074504837
-0.032176103 0.067644529 0.006164948
-0.0072421655 0.069051504 0.0053080716
-0.002374639 0.06811282 0.0059190788
0.0079780817 0.06919384 0.0050331354
0.012580596 0.06736628 0.005941953
0.018164771 0.067211166 0.0056087449
0.021433182 0.06919384 0.0050582886
0.02502121 0.06919384 0.0050649643
0.031300262 0.06919384 0.0050767064
0.038070377 0.067232594 0.0050750971
0.042569157 0.067403242 0.005770117
0.047479302 0.068000108 0.0055551827
0.051981952 0.067644529 0.0063222549
0.05735755 0.067725815 0.0065758587
0.062734783 0.067430764 0.0067972937
0.067640722 0.068383075 0.0058236271
0.071672656 0.068766832 0.0060623884
0.082429662 0.06919384 0.0051723123
-0.092670649 0.072574392 0.0068819881
-0.087833375 0.072604932 0.0080769761
-0.08441624 0.071499556 0.0062497556
-0.07037311 0.074667186 0.005849719
-0.067276679 0.073866628 0.0061513982
-0.063394949 0.073620163 0.0063993097
-0.057324763 0.072626337 0.0060064397
-0.053134728 0.072626866 0.0060145757
-0.041359045 0.070730448 0.0058668256
-0.038280301 0.072098404 0.0061130673
-0.032837905 0.071115002 0.006114468
-0.027227579 0.074282244 0.0056984276
-0.012393164 0.073619835 0.00649451
-0.0073629711 0.072697952 0.0059483778
-0.0030182749 0.072218165 0.0061344146
0.0088015348 0.071159065 0.0050512552
0.01265811 0.07223729 0.0064379573
0.017842516 0.072267413 0.0069036153
0.030326221 0.072143242 0.0051008165
0.047412604 0.071159065 0.0051234365
0.051917382 0.072411165 0.0066647595
0.057334319 0.071788922 0.0079863537
0.062429782 0.072013073 0.0063333339
0.067703009 0.071860686 0.0053506969
0.071656756 0.071159065 0.005168736
0.083331466 0.072143242 0.0051998943
-0.092336431 0.077436529 0.0083112968
-0.088351503 0.076592311 0.0069761127
-0.077235214 0.07898543 0.0064930916
